NCOLS 95
NROWS 40
xllcorner 429609
yllcorner 4568241
cellsize 1.0 
NODATA_value - 9999
1.714107999999999947e+03 1.713768000000000029e+03 1.713404164037529199e+03 1.712904721515371875e+03 1.712376740654907735e+03 1.711848316236298388e+03 1.711315035563191714e+03 1.710761055130832574e+03 1.710159378966648546e+03 1.709502603258439194e+03 1.708832498674604949e+03 1.708151475133884560e+03 1.707402292241772329e+03 1.706551106482156683e+03 1.705663870609819696e+03 1.704808284571150807e+03 1.704014430024805506e+03 1.703235208035708638e+03 1.702477456275470104e+03 1.701811053592314693e+03 1.701132002593951711e+03 1.700417267343862022e+03 1.699721002482470340e+03 1.699056358539373832e+03 1.698395783414034668e+03 1.697699866569226288e+03 1.696953271401815982e+03 1.696143292164697641e+03 1.695291328230586259e+03 1.694412453337008174e+03 1.693525239714754207e+03 1.692655193093793287e+03 1.691819573564604525e+03 1.691022664640611310e+03 1.690259286338227184e+03 1.689520300845280417e+03 1.688814546620785450e+03 1.688154907728821854e+03 1.687538618392062745e+03 1.686916039162315883e+03 1.686223844229057477e+03 1.685462876109575291e+03 1.684679588012521890e+03 1.683927079643868410e+03 1.683215862505462837e+03 1.682519470561798926e+03 1.681804529622934524e+03 1.681053675892833780e+03 1.680270199930765557e+03 1.679516667441571826e+03 1.678791024422553619e+03 1.678075919238885035e+03 1.677359365182287775e+03 1.676726179891063566e+03 1.676135254965108970e+03 1.675467246254222118e+03 1.674721939238709183e+03 1.673974589611347938e+03 1.673287241256183734e+03 1.672663469918877126e+03 1.672036316765517313e+03 1.671323030063802889e+03 1.670574979737222975e+03 1.669877615695475697e+03 1.669217229278062405e+03 1.668578511744769003e+03 1.667967366797549857e+03 1.667396159983272355e+03 1.666859065104399633e+03 1.666307212560449443e+03 1.665679364491140404e+03 1.664972113518375409e+03 1.664236166884370505e+03 1.663509956885221300e+03 1.662803574330263700e+03 1.662123643685144998e+03 1.661470680227190769e+03 1.660836921413800383e+03 1.660201368298623493e+03 1.659555432266093931e+03 1.658948358705353712e+03 1.658404129618801335e+03 1.657900780485854057e+03 1.657402509199821225e+03 1.656862857887463178e+03 1.656286901458686316e+03 1.655727001895932290e+03 1.655240517576070943e+03 1.654897503136461637e+03 1.654780722118875019e+03 1.654912836848461893e+03 1.655249385861696055e+03 1.655708869789320715e+03 1.656235847681221912e+03 1.656781999999999925e+03
1.713800999999999931e+03 1.713618999999999915e+03 1.713140952898183514e+03 1.712640741279216854e+03 1.712129941122646869e+03 1.711617099205693876e+03 1.711095893531723505e+03 1.710551413857571106e+03 1.709957386300523922e+03 1.709299527342976944e+03 1.708605469214465074e+03 1.707896045406443136e+03 1.707135365346105573e+03 1.706300667638980485e+03 1.705446743055621482e+03 1.704620917331677902e+03 1.703829754841024624e+03 1.703072440319382167e+03 1.702369205088807576e+03 1.701710239945293324e+03 1.701031566678048421e+03 1.700318743145712233e+03 1.699615253643426968e+03 1.698949234283593796e+03 1.698304499693470916e+03 1.697633607217846020e+03 1.696892531388346924e+03 1.696064529542372384e+03 1.695173445357100491e+03 1.694256016721563810e+03 1.693356916050576729e+03 1.692495790383212125e+03 1.691672858443255791e+03 1.690884632653774361e+03 1.690121131362932601e+03 1.689371651291234457e+03 1.688646330820960202e+03 1.687969389816431885e+03 1.687350350014331070e+03 1.686751109187355269e+03 1.686099731328647522e+03 1.685360950079230861e+03 1.684576238258656304e+03 1.683802445601486397e+03 1.683056735387886420e+03 1.682340299583223441e+03 1.681639073043697181e+03 1.680899405037169799e+03 1.680094043462645914e+03 1.679292030371456804e+03 1.678538588682464024e+03 1.677832662967523220e+03 1.677172753314460351e+03 1.676573515014866643e+03 1.675982169264972072e+03 1.675298908975071072e+03 1.674527793575839041e+03 1.673739663370444987e+03 1.672993932997199863e+03 1.672309384580375990e+03 1.671658546242124885e+03 1.670990774263199000e+03 1.670310132516563954e+03 1.669643905783665105e+03 1.668993446018979284e+03 1.668358255038518109e+03 1.667750205812959166e+03 1.667188015290962994e+03 1.666669100285512968e+03 1.666135426067458866e+03 1.665507763787260274e+03 1.664779460635377745e+03 1.664008191719018669e+03 1.663247862783162873e+03 1.662517062721151206e+03 1.661815212271843620e+03 1.661137796161138112e+03 1.660484408212681728e+03 1.659855613194640682e+03 1.659254913995029028e+03 1.658693122781867260e+03 1.658166912116971162e+03 1.657639814574162301e+03 1.657083237435653700e+03 1.656495796337341517e+03 1.655901397511092910e+03 1.655339081722020410e+03 1.654872053281082344e+03 1.654571587961649357e+03 1.654496206663692647e+03 1.654668451015753817e+03 1.655050070941362037e+03 1.655563328438835924e+03 1.656151011333449333e+03 1.656794000000000096e+03
1.713521999999999935e+03 1.713425999999999931e+03 1.712896447953596180e+03 1.712389437782426057e+03 1.711880896167888295e+03 1.711372188028717801e+03 1.710855622564847408e+03 1.710317335506411155e+03 1.709732271181023407e+03 1.709080270595555248e+03 1.708379405024135394e+03 1.707655425298667069e+03 1.706889526196948964e+03 1.706069378375786300e+03 1.705239949929076829e+03 1.704431738311282061e+03 1.703647140292601307e+03 1.702909036997215026e+03 1.702242310949068724e+03 1.701605969956438912e+03 1.700936566237240186e+03 1.700226885141256844e+03 1.699519026059632779e+03 1.698846784863571884e+03 1.698202978708502997e+03 1.697540617433522584e+03 1.696803297330417536e+03 1.695963055998264963e+03 1.695047509393697965e+03 1.694108076985654861e+03 1.693202052687516698e+03 1.692348262204277489e+03 1.691536942904559965e+03 1.690756182431396837e+03 1.689992442175210044e+03 1.689234053747225516e+03 1.688491678538090582e+03 1.687794338465699184e+03 1.687162674382649811e+03 1.686571847204364531e+03 1.685947549224942577e+03 1.685233631163249356e+03 1.684458047856673602e+03 1.683673072796965698e+03 1.682902344904920028e+03 1.682166721356182961e+03 1.681468398526882538e+03 1.680738694623945094e+03 1.679929050933832968e+03 1.679114654791938847e+03 1.678356667532934125e+03 1.677653872905471189e+03 1.676993200100778495e+03 1.676364897006648789e+03 1.675724145613523206e+03 1.675008054875430616e+03 1.674226829332284069e+03 1.673437016010321940e+03 1.672687056937757461e+03 1.671998857624745369e+03 1.671360972745599611e+03 1.670728557077166897e+03 1.670077342113562736e+03 1.669419456933143465e+03 1.668768076419159570e+03 1.668133853013967382e+03 1.667531918551500894e+03 1.666981421574436808e+03 1.666480206870599659e+03 1.665966411491850522e+03 1.665344075465106698e+03 1.664590218587562276e+03 1.663774077611611574e+03 1.662973160092188664e+03 1.662213928409159507e+03 1.661490326548088888e+03 1.660795118515991135e+03 1.660135112531197137e+03 1.659523488694260777e+03 1.658962661566702764e+03 1.658433396939144359e+03 1.657903046609418652e+03 1.657340047095111004e+03 1.656738677227013795e+03 1.656118453702530815e+03 1.655512025730573896e+03 1.654962654016739634e+03 1.654531993984795236e+03 1.654276645575384464e+03 1.654236613787915076e+03 1.654437060232302429e+03 1.654852614401320807e+03 1.655407995430753090e+03 1.656048356428284251e+03 1.656796000000000049e+03
1.713200000000000045e+03 1.713057999999999993e+03 1.712614045303937928e+03 1.712135255615896313e+03 1.711633040874973631e+03 1.711123663959620444e+03 1.710606727760616195e+03 1.710072664090409489e+03 1.709498222118818376e+03 1.708858066427617587e+03 1.708161368758292156e+03 1.707432969327649971e+03 1.706669757642041759e+03 1.705866585382084622e+03 1.705053721631276403e+03 1.704251876513882053e+03 1.703471924088323703e+03 1.702750109061938474e+03 1.702106737773122632e+03 1.701482842804316306e+03 1.700816819115805856e+03 1.700110485002943733e+03 1.699402944654113753e+03 1.698723735855371388e+03 1.698068209647044569e+03 1.697393398706884454e+03 1.696642464031927375e+03 1.695788006561371731e+03 1.694869007164709274e+03 1.693939419043513226e+03 1.693042440372638112e+03 1.692195750631758074e+03 1.691391274208224104e+03 1.690615369824270829e+03 1.689854595678848909e+03 1.689096167972626972e+03 1.688346078619937998e+03 1.687630238008954166e+03 1.686976694769410415e+03 1.686378149859272071e+03 1.685767854644866020e+03 1.685076096363959095e+03 1.684309338706925701e+03 1.683508342380688191e+03 1.682705245058250284e+03 1.681942109238143985e+03 1.681239082569457878e+03 1.680528168745552193e+03 1.679748836133886925e+03 1.678959606943373274e+03 1.678214670279298844e+03 1.677503729117079956e+03 1.676803384562225801e+03 1.676107126066682895e+03 1.675397247594011333e+03 1.674648639946884032e+03 1.673873646164471666e+03 1.673109084810933382e+03 1.672386327578090459e+03 1.671721850794871443e+03 1.671106854322373238e+03 1.670494861548621202e+03 1.669849242921716723e+03 1.669184673084208953e+03 1.668525050921332877e+03 1.667888915914478730e+03 1.667293207938179421e+03 1.666754084194498319e+03 1.666264605374839903e+03 1.665758487838793371e+03 1.665133171228636911e+03 1.664355761832643566e+03 1.663504674492445019e+03 1.662675044217151026e+03 1.661896873438720604e+03 1.661160317709568517e+03 1.660460801651133124e+03 1.659811270869509372e+03 1.659223630031584207e+03 1.658684715535159739e+03 1.658157671235950602e+03 1.657606330045774939e+03 1.657016550464859165e+03 1.656393945852884372e+03 1.655758585330159804e+03 1.655142676110420780e+03 1.654594392551913188e+03 1.654177257956002677e+03 1.653945286050627601e+03 1.653938175958783859e+03 1.654179744193813804e+03 1.654640427040232453e+03 1.655233469945531851e+03 1.655875380224075570e+03 1.656484999999999900e+03
1.712814000000000078e+03 1.712723999999999933e+03 1.712316951964894997e+03 1.711860286363486011e+03 1.711371367320128002e+03 1.710868493044758225e+03 1.710356540951536317e+03 1.709832576575225403e+03 1.709277362848137727e+03 1.708659176016455149e+03 1.707973572970465284e+03 1.707242770644215852e+03 1.706480732758432623e+03 1.705688726175184911e+03 1.704883103967284569e+03 1.704080523198937271e+03 1.703303830846919936e+03 1.702595694576519691e+03 1.701968247111678011e+03 1.701350359393270537e+03 1.700683743696447436e+03 1.699977028568906462e+03 1.699266024343517074e+03 1.698574393852154117e+03 1.697899040838359497e+03 1.697205862827734109e+03 1.696447205861995826e+03 1.695600422853542341e+03 1.694702067208472727e+03 1.693792657255063659e+03 1.692899081069916974e+03 1.692046960142849457e+03 1.691238446485938312e+03 1.690461741802183724e+03 1.689704329556279845e+03 1.688951935438245982e+03 1.688202929054024253e+03 1.687475166014233764e+03 1.686798163533240086e+03 1.686178995701736994e+03 1.685565505261064800e+03 1.684885751514408412e+03 1.684125283665963252e+03 1.683309597488659392e+03 1.682478608630465260e+03 1.681692260184052884e+03 1.680985252450115240e+03 1.680301628905649522e+03 1.679576286611561045e+03 1.678830685795350291e+03 1.678100307117967532e+03 1.677369598297059611e+03 1.676616676503611416e+03 1.675851352421298316e+03 1.675082509435677821e+03 1.674311928915419912e+03 1.673551442363094793e+03 1.672816723788473382e+03 1.672119848186566287e+03 1.671468605966968880e+03 1.670854344519950246e+03 1.670236664428600761e+03 1.669583485482836295e+03 1.668912665347778329e+03 1.668247544018531926e+03 1.667608960326460419e+03 1.667016740481295528e+03 1.666482531597183424e+03 1.665987884666428272e+03 1.665460850257029961e+03 1.664812801101448713e+03 1.664023865638030202e+03 1.663172810564876045e+03 1.662348554625767292e+03 1.661573621157289836e+03 1.660838263756173319e+03 1.660147950844945171e+03 1.659520771097302259e+03 1.658955920330138724e+03 1.658417324733220084e+03 1.657866758582441662e+03 1.657288212922783032e+03 1.656684602866893783e+03 1.656058082675208425e+03 1.655417802064566104e+03 1.654789044136408847e+03 1.654219592082194140e+03 1.653780109976438325e+03 1.653545653382948103e+03 1.653576366764166778e+03 1.653886194113436204e+03 1.654418403656186001e+03 1.655071802982418376e+03 1.655762995040777696e+03 1.656442000000000007e+03
1.712298000000000002e+03 1.712515000000000100e+03 1.711987929775752264e+03 1.711526600003030808e+03 1.711064770484383871e+03 1.710591286129532136e+03 1.710102774450994275e+03 1.709600734034074321e+03 1.709073379007027597e+03 1.708484684901002765e+03 1.707814031191792765e+03 1.707081174244226531e+03 1.706316210865101084e+03 1.705527122293304956e+03 1.704723220763223253e+03 1.703920684446332643e+03 1.703150268852008367e+03 1.702456869617462871e+03 1.701846626722641304e+03 1.701239135650850585e+03 1.700572551839931521e+03 1.699857142512149039e+03 1.699130737444237639e+03 1.698418052775644355e+03 1.697719523397421881e+03 1.697009566231433610e+03 1.696252696483737736e+03 1.695430198985101470e+03 1.694558927784303705e+03 1.693662510163282832e+03 1.692766152332629190e+03 1.691906037582849649e+03 1.691091875306693510e+03 1.690312583539578554e+03 1.689555552121352775e+03 1.688806831395588233e+03 1.688060005243070009e+03 1.687324975472108463e+03 1.686627148968257188e+03 1.685980010137120644e+03 1.685348057438979595e+03 1.684670572180423960e+03 1.683922155268897768e+03 1.683111199735684067e+03 1.682274445649090467e+03 1.681479294859837410e+03 1.680775456673140070e+03 1.680127824693057846e+03 1.679464718520885071e+03 1.678761868604174424e+03 1.678032927100604184e+03 1.677270107401503992e+03 1.676470386545667225e+03 1.675655012900396059e+03 1.674845405398829826e+03 1.674060348083548206e+03 1.673310238465805014e+03 1.672592038030160893e+03 1.671902466215297409e+03 1.671242223660473883e+03 1.670604785213445211e+03 1.669964508714781005e+03 1.669300913719333039e+03 1.668626176608401011e+03 1.667955965591678478e+03 1.667313753537018101e+03 1.666721832537144110e+03 1.666180975825610858e+03 1.665655970744982369e+03 1.665078362824485339e+03 1.664395539439806271e+03 1.663615534002422464e+03 1.662802483951113345e+03 1.662015385259064715e+03 1.661262370549451134e+03 1.660539389076458065e+03 1.659866251581534470e+03 1.659261702775352433e+03 1.658706886991051761e+03 1.658150881412601393e+03 1.657566071271084638e+03 1.656958598254070694e+03 1.656339944038157910e+03 1.655708084856207961e+03 1.655064875368571620e+03 1.654428288713810389e+03 1.653841017148126184e+03 1.653380332899805580e+03 1.653148132474331533e+03 1.653224942158786462e+03 1.653607521776867998e+03 1.654207568613293461e+03 1.654915561080541693e+03 1.655664358425361797e+03 1.656503999999999905e+03
1.711792999999999893e+03 1.712001999999999953e+03 1.711542464118381986e+03 1.711135503940691251e+03 1.710727650695742568e+03 1.710301794643148924e+03 1.709848043640152127e+03 1.709369870426461148e+03 1.708864333979081266e+03 1.708299186482910955e+03 1.707645739705298638e+03 1.706919888194501482e+03 1.706157304997712799e+03 1.705369809125804750e+03 1.704567322582134921e+03 1.703769248319323879e+03 1.703010380578418335e+03 1.702335933183660927e+03 1.701750075867256555e+03 1.701166961605246343e+03 1.700512914315571606e+03 1.699790392128100393e+03 1.699039884314130632e+03 1.698293438168880357e+03 1.697559315071533092e+03 1.696819846111134893e+03 1.696050914058719854e+03 1.695239358137670706e+03 1.694384477201697109e+03 1.693500893905949852e+03 1.692616880678327789e+03 1.691767287246655087e+03 1.690960091318294872e+03 1.690183319605241650e+03 1.689424557368786964e+03 1.688672967639076433e+03 1.687922736185566237e+03 1.687179316265194984e+03 1.686461497813157166e+03 1.685783162202512813e+03 1.685125288680990707e+03 1.684447455725937971e+03 1.683722707415723562e+03 1.682940099495891218e+03 1.682117171410297033e+03 1.681316967643485668e+03 1.680611072815200259e+03 1.680000824986390853e+03 1.679411628693350394e+03 1.678770645517628054e+03 1.678052743555302186e+03 1.677254818807341280e+03 1.676405117457728693e+03 1.675541549373239377e+03 1.674697179386640073e+03 1.673900115581251612e+03 1.673150712771298686e+03 1.672430079782197936e+03 1.671729989727880366e+03 1.671049887162405867e+03 1.670384361165766222e+03 1.669719632224794623e+03 1.669044437704773827e+03 1.668361164597949937e+03 1.667682320392848624e+03 1.667036517575744256e+03 1.666441845395139808e+03 1.665880867330463388e+03 1.665306278094805521e+03 1.664670016036545348e+03 1.663960224344524477e+03 1.663203821059853908e+03 1.662440907767020917e+03 1.661697627136089295e+03 1.660972110552574350e+03 1.660269673826721373e+03 1.659620092279384835e+03 1.659032154052439637e+03 1.658468195756269779e+03 1.657881704533157517e+03 1.657262747567509223e+03 1.656627253351704894e+03 1.655984684998006287e+03 1.655335672327259772e+03 1.654684482986604507e+03 1.654045969942044167e+03 1.653457319908836553e+03 1.652999227123547826e+03 1.652792196938694815e+03 1.652925368561291180e+03 1.653370408524241157e+03 1.654012169096070465e+03 1.654732505920453150e+03 1.655442849346698495e+03 1.656096999999999980e+03
1.711326999999999998e+03 1.711234999999999900e+03 1.711042817962938670e+03 1.710749156451950967e+03 1.710408723500711403e+03 1.710028342011450604e+03 1.709601951937380818e+03 1.709135447932386796e+03 1.708634737549775991e+03 1.708079725101144049e+03 1.707444077711243153e+03 1.706736846378320934e+03 1.705987779921289075e+03 1.705209432000872994e+03 1.704413998812822229e+03 1.703624643134556436e+03 1.702878948700845740e+03 1.702222111237138506e+03 1.701658513836408929e+03 1.701103340490838491e+03 1.700474466657493167e+03 1.699759584070230630e+03 1.698991281174079177e+03 1.698205201003759385e+03 1.697420520176978926e+03 1.696632405428255424e+03 1.695829755589204069e+03 1.695006869566926753e+03 1.694159447785762723e+03 1.693299604730849296e+03 1.692450508766601160e+03 1.691633040882316664e+03 1.690847135449363350e+03 1.690078610578467988e+03 1.689316848774506525e+03 1.688556856678390659e+03 1.687796991853401778e+03 1.687041455481614776e+03 1.686303247019642185e+03 1.685594717111883256e+03 1.684912243021079348e+03 1.684238085821727509e+03 1.683547700778973422e+03 1.682807976387385224e+03 1.682004303051834540e+03 1.681185903609505203e+03 1.680448774126964963e+03 1.679841071073617741e+03 1.679299401591922106e+03 1.678713524054226809e+03 1.678015765732648561e+03 1.677202251212647298e+03 1.676325020476546115e+03 1.675441479264368809e+03 1.674593223922715879e+03 1.673803070400103707e+03 1.673051262227557345e+03 1.672312228658799768e+03 1.671590417543238345e+03 1.670892611611103803e+03 1.670207453648441515e+03 1.669519656693303659e+03 1.668826063848321155e+03 1.668127884446614871e+03 1.667439166190223659e+03 1.666787571215020307e+03 1.666180061428185581e+03 1.665585831396531603e+03 1.664960322075765816e+03 1.664282257599401873e+03 1.663563674226784542e+03 1.662830757649056522e+03 1.662102463782902760e+03 1.661386787324326633e+03 1.660684578804664625e+03 1.660012515950181978e+03 1.659396416222690050e+03 1.658821757916841307e+03 1.658236632190643604e+03 1.657615973589141277e+03 1.656971438796671009e+03 1.656316670090553089e+03 1.655648183168221749e+03 1.654972770395089810e+03 1.654304619536325163e+03 1.653660772084561131e+03 1.653077199801090501e+03 1.652638172148513149e+03 1.652473733040680600e+03 1.652670085656149240e+03 1.653168815035447096e+03 1.653834224455923504e+03 1.654547407073380782e+03 1.655222232595722971e+03 1.655816000000000031e+03
1.710834000000000060e+03 1.710847999999999956e+03 1.710644229175407872e+03 1.710411987092582649e+03 1.710124528957519487e+03 1.709779966060101742e+03 1.709371142188621661e+03 1.708903372883957445e+03 1.708390506665711882e+03 1.707830361723550595e+03 1.707208243522344901e+03 1.706527349663626865e+03 1.705806259782935740e+03 1.705052666791521688e+03 1.704273976251055046e+03 1.703494818862474403e+03 1.702757991351140618e+03 1.702110237150862986e+03 1.701554316966209853e+03 1.701009355394594422e+03 1.700397713707341381e+03 1.699700003628439845e+03 1.698935009097451712e+03 1.698131136221707038e+03 1.697308661534628527e+03 1.696473357824010009e+03 1.695629598872727684e+03 1.694784166935993198e+03 1.693940532776330656e+03 1.693108879831961985e+03 1.692300216779849279e+03 1.691520664018880780e+03 1.690762644432634488e+03 1.690006425522578184e+03 1.689241089591078662e+03 1.688467951818290885e+03 1.687691524414313790e+03 1.686918235333731445e+03 1.686158875515739965e+03 1.685424065909522369e+03 1.684722080113527909e+03 1.684055320009604202e+03 1.683402061129764661e+03 1.682705211076152636e+03 1.681914744994049670e+03 1.681064416863104725e+03 1.680266816239766740e+03 1.679607180764283839e+03 1.679045031010514094e+03 1.678459584453936259e+03 1.677766254104064728e+03 1.676965645396413265e+03 1.676116247812641632e+03 1.675279649289139797e+03 1.674486497560804082e+03 1.673735777442628205e+03 1.672986352204516152e+03 1.672220292653620163e+03 1.671472979716706277e+03 1.670767997016062964e+03 1.670077440708013910e+03 1.669365689345764622e+03 1.668639335138494971e+03 1.667915319215031786e+03 1.667211558299905846e+03 1.666545496072910737e+03 1.665913911557403935e+03 1.665287683468725390e+03 1.664633939029609337e+03 1.663943338428497555e+03 1.663228533110883518e+03 1.662506914881753573e+03 1.661787774428574039e+03 1.661076915546172586e+03 1.660388590165071719e+03 1.659751341088949403e+03 1.659171637329091936e+03 1.658605630312488756e+03 1.657998907938979755e+03 1.657354030760460773e+03 1.656702085587465035e+03 1.656046302901325589e+03 1.655360376771970095e+03 1.654657400868367404e+03 1.653967377810294693e+03 1.653312966382025024e+03 1.652731500964600855e+03 1.652311121134829818e+03 1.652186258897805146e+03 1.652435643910984481e+03 1.652976099752837854e+03 1.653656412493363860e+03 1.654358686273117200e+03 1.655013263536438217e+03 1.655621000000000095e+03
1.710395999999999958e+03 1.710311999999999898e+03 1.710246004095941771e+03 1.710092220480726610e+03 1.709858800219032673e+03 1.709552879863344288e+03 1.709164022044522653e+03 1.708693535188657052e+03 1.708162838698448013e+03 1.707587746084115224e+03 1.706969081237452428e+03 1.706311780342343809e+03 1.705627175365248604e+03 1.704911645580750701e+03 1.704157681488205071e+03 1.703387723070391985e+03 1.702653950512136362e+03 1.702008053456711195e+03 1.701448019153706127e+03 1.700894361899822798e+03 1.700282238982086483e+03 1.699599236158175700e+03 1.698855870579777502e+03 1.698064027589937268e+03 1.697231624324434506e+03 1.696369737237648678e+03 1.695496346311961133e+03 1.694630274361754346e+03 1.693784972246410689e+03 1.692970206657776089e+03 1.692188607700866669e+03 1.691439880482981607e+03 1.690713022885975761e+03 1.689978458403624700e+03 1.689216051116471135e+03 1.688427640378002707e+03 1.687624684465873997e+03 1.686822361737419897e+03 1.686036834038032339e+03 1.685278094416748672e+03 1.684559622251197197e+03 1.683897898113106748e+03 1.683274250573654172e+03 1.682609834709733832e+03 1.681824804933964515e+03 1.680944558954043941e+03 1.680088912646252993e+03 1.679355393992620520e+03 1.678718735539583804e+03 1.678070807170239732e+03 1.677348569713857614e+03 1.676572662874586968e+03 1.675796584917663040e+03 1.675059130692979579e+03 1.674356547751136077e+03 1.673658708035791733e+03 1.672917015681587600e+03 1.672129632839803890e+03 1.671365389562096880e+03 1.670670314399838389e+03 1.669995371973844158e+03 1.669265903304960375e+03 1.668492453710489144e+03 1.667725386848611834e+03 1.666996082013851264e+03 1.666310839257587304e+03 1.665658623930922658e+03 1.665015367561029507e+03 1.664355105210476722e+03 1.663666362503005075e+03 1.662953539685036958e+03 1.662228776905872110e+03 1.661501460939463868e+03 1.660784071999034495e+03 1.660105386710433095e+03 1.659498150633835849e+03 1.658942103438274899e+03 1.658374284092644757e+03 1.657752210733643778e+03 1.657100845388777543e+03 1.656462439150509226e+03 1.655825531471580689e+03 1.655135542208420247e+03 1.654407860519233054e+03 1.653693224164650019e+03 1.653023941218702021e+03 1.652438314552102383e+03 1.652026051773455038e+03 1.651923619907827742e+03 1.652202631686924406e+03 1.652764453115211836e+03 1.653450729608448228e+03 1.654144908872909582e+03 1.654775451435165905e+03 1.655287000000000035e+03
1.709981999999999971e+03 1.709932999999999993e+03 1.709887019756034761e+03 1.709781191549562209e+03 1.709596801671250887e+03 1.709336574223336129e+03 1.708977021827804720e+03 1.708510983476998263e+03 1.707967358502896332e+03 1.707377342947265561e+03 1.706756209538742723e+03 1.706116002141029412e+03 1.705465104089786337e+03 1.704788216359189391e+03 1.704061410569674081e+03 1.703300423857356463e+03 1.702565807366175704e+03 1.701917367316038280e+03 1.701348857084015890e+03 1.700778563068841095e+03 1.700155317259145932e+03 1.699481765197483583e+03 1.698765970064901012e+03 1.697999709608764988e+03 1.697175261294619759e+03 1.696306813722675088e+03 1.695420854648196382e+03 1.694542466988985325e+03 1.693691231692906513e+03 1.692878934284115076e+03 1.692107192835340356e+03 1.691377786102628988e+03 1.690682912886898521e+03 1.689984916869514564e+03 1.689244034876210890e+03 1.688448980700566381e+03 1.687613738773004570e+03 1.686769097948190392e+03 1.685947952549929141e+03 1.685165395300975433e+03 1.684432434550514699e+03 1.683768552669155497e+03 1.683157579598635266e+03 1.682509618199386978e+03 1.681727462394896065e+03 1.680836511330390977e+03 1.679959171596523674e+03 1.679177720877954243e+03 1.678456143097622316e+03 1.677712202684593649e+03 1.676939067030446267e+03 1.676184965326089241e+03 1.675485343195664882e+03 1.674835798809787775e+03 1.674196217721688072e+03 1.673527494112056957e+03 1.672795388297137151e+03 1.672007807016760580e+03 1.671245142156489464e+03 1.670571136550301162e+03 1.669928779567313086e+03 1.669201662586954171e+03 1.668387427371857939e+03 1.667570990376325653e+03 1.666810673623449247e+03 1.666111514630333659e+03 1.665452090656316159e+03 1.664802480362389360e+03 1.664136609424648668e+03 1.663441142771153409e+03 1.662716586663394310e+03 1.661976044167106011e+03 1.661234150189749471e+03 1.660512680300354987e+03 1.659847525555306675e+03 1.659261718620260581e+03 1.658712164822630712e+03 1.658135822075319538e+03 1.657509568360512276e+03 1.656867189145234988e+03 1.656250482289461615e+03 1.655638804894536861e+03 1.654958803408926542e+03 1.654216926500108912e+03 1.653477334227394749e+03 1.652786291735657414e+03 1.652187327210129752e+03 1.651772585283800709e+03 1.651679203469578624e+03 1.651970851848946040e+03 1.652537897266222899e+03 1.653224832447910558e+03 1.653927552643359832e+03 1.654592305233635216e+03 1.655211999999999989e+03
1.709550999999999931e+03 1.709553000000000111e+03 1.709520457233193611e+03 1.709447112567659133e+03 1.709305791504011722e+03 1.709092245567359896e+03 1.708767623608181111e+03 1.708316648579052298e+03 1.707773987653915810e+03 1.707180993010669226e+03 1.706562254678633053e+03 1.705935726002118599e+03 1.705308103747908262e+03 1.704658553455100673e+03 1.703955966518865807e+03 1.703208253927151873e+03 1.702476354282229750e+03 1.701827270947051602e+03 1.701254886184868155e+03 1.700672105681491075e+03 1.700034797011061528e+03 1.699360192292883312e+03 1.698660224718793188e+03 1.697914559653604101e+03 1.697105270118607223e+03 1.696245907012691305e+03 1.695364025959655692e+03 1.694484714068407129e+03 1.693629157407283628e+03 1.692812057294675242e+03 1.692038232881345266e+03 1.691315602777801359e+03 1.690645504697833758e+03 1.689991050927385004e+03 1.689293226600363823e+03 1.688515961718640710e+03 1.687662932304994683e+03 1.686776595855101505e+03 1.685913141614011465e+03 1.685102562587489047e+03 1.684350513584934106e+03 1.683670671475122845e+03 1.683048855068818739e+03 1.682400665315101833e+03 1.681627695709065847e+03 1.680757983745306319e+03 1.679915059339248273e+03 1.679145040913092544e+03 1.678368538429123191e+03 1.677525055604907720e+03 1.676685200290688726e+03 1.675928095446713996e+03 1.675258122713059493e+03 1.674626192080556393e+03 1.673982193895925775e+03 1.673309219683103038e+03 1.672597764090936380e+03 1.671843975115504691e+03 1.671102740063898182e+03 1.670439732765767985e+03 1.669816175008412984e+03 1.669099798385566373e+03 1.668270266554954105e+03 1.667426672692739203e+03 1.666649596081019808e+03 1.665949330330367729e+03 1.665292100600587446e+03 1.664636843466272467e+03 1.663957929997410474e+03 1.663244284645552852e+03 1.662496961797146241e+03 1.661734519446149534e+03 1.660980443912783812e+03 1.660265544667852737e+03 1.659621005094043994e+03 1.659047235508854783e+03 1.658489896375251647e+03 1.657901712422751416e+03 1.657278065117484857e+03 1.656648618778869150e+03 1.656044037969158580e+03 1.655445480452234506e+03 1.654782623354869884e+03 1.654043841162543458e+03 1.653285388723239521e+03 1.652567328945025110e+03 1.651948647589334087e+03 1.651531749903087984e+03 1.651453941755464029e+03 1.651763996819485328e+03 1.652337572120066397e+03 1.653021016554739617e+03 1.653723746898197078e+03 1.654412327607619090e+03 1.655104000000000042e+03
1.709077999999999975e+03 1.709130000000000109e+03 1.709122795941381582e+03 1.709070291051018330e+03 1.708956290479150312e+03 1.708772313747286034e+03 1.708474959900460817e+03 1.708047688304863186e+03 1.707526397397404935e+03 1.706953253130179746e+03 1.706353397734028022e+03 1.705744622039766000e+03 1.705129880603719357e+03 1.704490802533625583e+03 1.703804399480756956e+03 1.703077724300065483e+03 1.702363802615602935e+03 1.701727071735562959e+03 1.701160701848266399e+03 1.700572212247733205e+03 1.699918391067608127e+03 1.699226902982120009e+03 1.698520508154914069e+03 1.697781548579072023e+03 1.696989089751406937e+03 1.696151189620711421e+03 1.695289387203275055e+03 1.694423485572257732e+03 1.693571849735159958e+03 1.692750578729223434e+03 1.691969235459551328e+03 1.691243093172679664e+03 1.690585072597454200e+03 1.689968840517068884e+03 1.689329791399349915e+03 1.688608534230936584e+03 1.687781380314815124e+03 1.686880542849563426e+03 1.685976928077002412e+03 1.685122642752070988e+03 1.684325504684102270e+03 1.683600722398853122e+03 1.682941324328290193e+03 1.682279542836543897e+03 1.681525365374214061e+03 1.680701049360413208e+03 1.679926366841249092e+03 1.679214516124654665e+03 1.678435667192410392e+03 1.677524642908606893e+03 1.676618567483910738e+03 1.675832189648169560e+03 1.675135299725696996e+03 1.674449324108046767e+03 1.673749041671301256e+03 1.673055746805499439e+03 1.672376915720634088e+03 1.671679598276856268e+03 1.670966879953981788e+03 1.670288802833710179e+03 1.669643464455281446e+03 1.668922319831957793e+03 1.668101361440332312e+03 1.667266639236329866e+03 1.666496356425207068e+03 1.665801436249082599e+03 1.665141166628860674e+03 1.664474594310027896e+03 1.663781928898715250e+03 1.663053132845802338e+03 1.662288073529956364e+03 1.661509697641895855e+03 1.660751708162202249e+03 1.660053168167293734e+03 1.659430336582660402e+03 1.658855223298801320e+03 1.658275686805481428e+03 1.657667414406118269e+03 1.657038729771883709e+03 1.656410723093667002e+03 1.655800705573471987e+03 1.655197391651201542e+03 1.654547932129448100e+03 1.653822789860916146e+03 1.653054736862452728e+03 1.652313342788428599e+03 1.651679236712386000e+03 1.651272528424392931e+03 1.651230159376099891e+03 1.651575821107168167e+03 1.652165151568513920e+03 1.652841537014477126e+03 1.653523215048012389e+03 1.654199280125457790e+03 1.654925999999999931e+03
1.708616999999999962e+03 1.708710000000000036e+03 1.708713317172475627e+03 1.708666696975728655e+03 1.708560951460053730e+03 1.708384661948047324e+03 1.708102736306939278e+03 1.707704929837150985e+03 1.707223433109644475e+03 1.706690260076971754e+03 1.706122365445675314e+03 1.705534138139218612e+03 1.704924404484818297e+03 1.704282186156235184e+03 1.703602483218275211e+03 1.702899956037486618e+03 1.702219108909025181e+03 1.701611536750818914e+03 1.701060916444201666e+03 1.700470536731972516e+03 1.699799660082079299e+03 1.699082705016200180e+03 1.698353733577333969e+03 1.697607429637217137e+03 1.696826572673812052e+03 1.696013527100277997e+03 1.695181149199572246e+03 1.694340723913838929e+03 1.693503422565238225e+03 1.692682950044036943e+03 1.691893578964919243e+03 1.691158231620648621e+03 1.690500016422899989e+03 1.689908430448441777e+03 1.689331546718301979e+03 1.688702460217760972e+03 1.687961381553768433e+03 1.687098302195583528e+03 1.686170735000552440e+03 1.685249415173921534e+03 1.684363491397902635e+03 1.683554743897640492e+03 1.682833371903165698e+03 1.682146274623096133e+03 1.681408949849814235e+03 1.680622819828290858e+03 1.679892723144495449e+03 1.679232263400811235e+03 1.678500454982321116e+03 1.677598182393162915e+03 1.676676084379759459e+03 1.675867647179213691e+03 1.675112998503033168e+03 1.674336584791961968e+03 1.673563589175234483e+03 1.672849047234129557e+03 1.672198848470681696e+03 1.671546543538981723e+03 1.670846469157894035e+03 1.670131251146826344e+03 1.669439250280437363e+03 1.668708222531081447e+03 1.667914203679671573e+03 1.667107280565323435e+03 1.666347464534562505e+03 1.665644883855458374e+03 1.664964910889156954e+03 1.664281637909425626e+03 1.663582312395806184e+03 1.662852436098628914e+03 1.662086115246568170e+03 1.661304930640547354e+03 1.660551113200199325e+03 1.659870913268015101e+03 1.659260708159043361e+03 1.658668411714416152e+03 1.658055781020152381e+03 1.657418146195563622e+03 1.656766612699400184e+03 1.656116209915187483e+03 1.655481136008228759e+03 1.654860786421542343e+03 1.654216840584079364e+03 1.653504869899280266e+03 1.652735910107912105e+03 1.651984762994497487e+03 1.651351688547790218e+03 1.650973565700552172e+03 1.650982784164092891e+03 1.651372250647694727e+03 1.651979110856967964e+03 1.652643515729456794e+03 1.653286330024261133e+03 1.653900629897216731e+03 1.654506000000000085e+03
1.708251999999999953e+03 1.708335000000000036e+03 1.708315760559537694e+03 1.708264126991265130e+03 1.708158835458210433e+03 1.707984361614505133e+03 1.707717896826669403e+03 1.707356307496364934e+03 1.706923059484993928e+03 1.706433482625689521e+03 1.705895071567555760e+03 1.705323628358698443e+03 1.704717351624762159e+03 1.704070719412248081e+03 1.703393538695425605e+03 1.702709826705028263e+03 1.702060591103941761e+03 1.701484012697872686e+03 1.700949818495441605e+03 1.700358817262159619e+03 1.699676849640523642e+03 1.698941726276992540e+03 1.698192704361084907e+03 1.697436250998716787e+03 1.696661517916693128e+03 1.695867652742595965e+03 1.695061040567717555e+03 1.694246113489144591e+03 1.693426189121294556e+03 1.692609611172077848e+03 1.691813822312832144e+03 1.691067575000862689e+03 1.690398700832177838e+03 1.689811063765475410e+03 1.689275976770181842e+03 1.688737039825647798e+03 1.688108866132039566e+03 1.687324662986616204e+03 1.686400238950101539e+03 1.685411161867390092e+03 1.684421566717227734e+03 1.683514411481769457e+03 1.682720489375174793e+03 1.681995587391300433e+03 1.681258500833256903e+03 1.680486772452966079e+03 1.679759225938685631e+03 1.679111232945800566e+03 1.678436909608770293e+03 1.677618748667812270e+03 1.676771988533472950e+03 1.675989787628619297e+03 1.675176649314509177e+03 1.674299899965938948e+03 1.673449360635151152e+03 1.672704638297109796e+03 1.672057384856570934e+03 1.671417364666810272e+03 1.670715602548411880e+03 1.669972090440458487e+03 1.669247806280011901e+03 1.668522806598388570e+03 1.667762220821174651e+03 1.666972815402752985e+03 1.666204133768314250e+03 1.665473413494916258e+03 1.664762231948623139e+03 1.664062034615162020e+03 1.663362707702673561e+03 1.662642647944945338e+03 1.661889200888884261e+03 1.661117895533536057e+03 1.660376105132747398e+03 1.659712760930429795e+03 1.659102036706712170e+03 1.658478812250059036e+03 1.657828458161245180e+03 1.657158467892401859e+03 1.656472961164916796e+03 1.655783201372339590e+03 1.655108828558815503e+03 1.654459031565833357e+03 1.653803736196504133e+03 1.653094115375175761e+03 1.652331450699060952e+03 1.651589179787728426e+03 1.650977599260979559e+03 1.650640282489500805e+03 1.650698303198933900e+03 1.651120920354162081e+03 1.651737442445484703e+03 1.652390427436499522e+03 1.653004515838426641e+03 1.653575877284544276e+03 1.654114000000000033e+03
1.707866999999999962e+03 1.707958000000000084e+03 1.707915492373738289e+03 1.707860794598547272e+03 1.707762991620227467e+03 1.707600625499127773e+03 1.707359426520462875e+03 1.707040748393622835e+03 1.706656467735766455e+03 1.706204975541328167e+03 1.705689011191371037e+03 1.705132387804875179e+03 1.704536105734721332e+03 1.703895029584391750e+03 1.703223773207459089e+03 1.702550806201290015e+03 1.701917453327617295e+03 1.701355680241747905e+03 1.700827224507346045e+03 1.700235065013514259e+03 1.699551816835563841e+03 1.698814311344074667e+03 1.698060453707680608e+03 1.697302817928599325e+03 1.696535402990982675e+03 1.695755594061299462e+03 1.694965923286952830e+03 1.694167198829341487e+03 1.693358088469728727e+03 1.692543059115593451e+03 1.691741863374739978e+03 1.690985652476460245e+03 1.690299212021126550e+03 1.689693277491738627e+03 1.689159044024331024e+03 1.688654171108623814e+03 1.688085000866141399e+03 1.687353250797292503e+03 1.686446439017505327e+03 1.685435981060318454e+03 1.684402212884414894e+03 1.683442735362302756e+03 1.682597189128905029e+03 1.681830277649437676e+03 1.681073168695735149e+03 1.680295995219613360e+03 1.679553423877248406e+03 1.678893032472844652e+03 1.678257366359374828e+03 1.677557531610887736e+03 1.676860019952618586e+03 1.676148295793304214e+03 1.675283234274607366e+03 1.674307559119228699e+03 1.673379192108955522e+03 1.672593582215873312e+03 1.671927702870116718e+03 1.671284724354448826e+03 1.670592260674743102e+03 1.669852032584976314e+03 1.669122352044248601e+03 1.668414508931611181e+03 1.667676118157264227e+03 1.666876306521856804e+03 1.666075043145205655e+03 1.665306655392319954e+03 1.664565981878126195e+03 1.663850671111951215e+03 1.663149588573280198e+03 1.662437544679474286e+03 1.661697487423493158e+03 1.660939911977205611e+03 1.660215802015458394e+03 1.659567782127956207e+03 1.658947994488816903e+03 1.658290546828219931e+03 1.657607046129290211e+03 1.656910614686463077e+03 1.656195908961712576e+03 1.655472485263898079e+03 1.654763944056588116e+03 1.654078877954094651e+03 1.653389583538515581e+03 1.652659657347807070e+03 1.651897376670762014e+03 1.651171042212304428e+03 1.650589145792088857e+03 1.650290361840814512e+03 1.650381501972443857e+03 1.650820402622568963e+03 1.651437998119743497e+03 1.652083796075720102e+03 1.652689986179492735e+03 1.653258540243585003e+03 1.653818999999999960e+03
1.707450000000000045e+03 1.707558999999999969e+03 1.707493970274484354e+03 1.707440471831108425e+03 1.707358162743760431e+03 1.707217726310065245e+03 1.707008427534561179e+03 1.706733422547858709e+03 1.706394480970496261e+03 1.705979913291021603e+03 1.705492485378381389e+03 1.704961497461820272e+03 1.704388573878133457e+03 1.703765765282887969e+03 1.703105610882227666e+03 1.702437012680284624e+03 1.701803654235903196e+03 1.701238042912175388e+03 1.700702081120196908e+03 1.700106165497417351e+03 1.699427047231144115e+03 1.698696859744914036e+03 1.697948671291361279e+03 1.697196838414483636e+03 1.696438885927903812e+03 1.695671448243638679e+03 1.694894298368471482e+03 1.694106008834348359e+03 1.693303178477671509e+03 1.692488792415504349e+03 1.691684609696675579e+03 1.690922052059844646e+03 1.690217385706429923e+03 1.689578421795761415e+03 1.689004653998984850e+03 1.688462291752031433e+03 1.687864758224802017e+03 1.687124337034198106e+03 1.686236315505096627e+03 1.685264802920763032e+03 1.684274932786415775e+03 1.683340265203324179e+03 1.682489123420958322e+03 1.681692196072556726e+03 1.680903027603512328e+03 1.680106977103952886e+03 1.679347149363947665e+03 1.678669240071586046e+03 1.678052098600440786e+03 1.677454079529961291e+03 1.676895355122927867e+03 1.676239628284661649e+03 1.675326907947042400e+03 1.674277623452022453e+03 1.673301613443346923e+03 1.672494732458538465e+03 1.671823663915322186e+03 1.671197701842022070e+03 1.670540932791705472e+03 1.669823621567199325e+03 1.669090346635072365e+03 1.668385530562265330e+03 1.667646378834540201e+03 1.666815832992205287e+03 1.665974898362760996e+03 1.665174818089641576e+03 1.664413084506446012e+03 1.663683056990532350e+03 1.662972472355124410e+03 1.662257610211036081e+03 1.661519880167985775e+03 1.660770317937690379e+03 1.660064012772123988e+03 1.659427336114654736e+03 1.658793650287404944e+03 1.658108551771925249e+03 1.657404059994189993e+03 1.656692353118393839e+03 1.655961893062790296e+03 1.655222222481146900e+03 1.654494772491750155e+03 1.653777859718011314e+03 1.653042174267322025e+03 1.652274629925250338e+03 1.651500534363344514e+03 1.650782287952656588e+03 1.650219342375368797e+03 1.649943252840001605e+03 1.650050657695046539e+03 1.650491368879635729e+03 1.651100557099694015e+03 1.651739329697315952e+03 1.652349991024092105e+03 1.652929559068663366e+03 1.653478000000000065e+03
1.706967000000000098e+03 1.707097999999999956e+03 1.707042347740093192e+03 1.707002107404076696e+03 1.706937535877785649e+03 1.706820081876999438e+03 1.706642099856714594e+03 1.706405417687182307e+03 1.706105072128041229e+03 1.705730142594800327e+03 1.705287550949729848e+03 1.704801111389372636e+03 1.704265646111908381e+03 1.703669931191474689e+03 1.703023404447599205e+03 1.702354193609814047e+03 1.701708811747243544e+03 1.701125566192668657e+03 1.700574451312750398e+03 1.699974420458568602e+03 1.699300712928396251e+03 1.698579129564756386e+03 1.697838453292821214e+03 1.697093497483769625e+03 1.696345056291470655e+03 1.695590138035877089e+03 1.694826322814040395e+03 1.694049996822965795e+03 1.693256075199888755e+03 1.692446253964211792e+03 1.691643125404285456e+03 1.690878388233245914e+03 1.690159744089993183e+03 1.689484518750050711e+03 1.688848320319569211e+03 1.688223744081811674e+03 1.687548329750432231e+03 1.686773365384773342e+03 1.685914362758271864e+03 1.685019270443472578e+03 1.684123640222536324e+03 1.683264460920969441e+03 1.682444654529371519e+03 1.681632005306015799e+03 1.680804325719321241e+03 1.679977423090227148e+03 1.679193082632792994e+03 1.678488801976649484e+03 1.677861776104624369e+03 1.677301400126948465e+03 1.676795104740051556e+03 1.676145863736918955e+03 1.675212640373347540e+03 1.674154224114303588e+03 1.673190663372110293e+03 1.672401187673717914e+03 1.671748431060785379e+03 1.671155837854708352e+03 1.670545851249454245e+03 1.669854142817284583e+03 1.669102002491087205e+03 1.668368426987637577e+03 1.667608316910389931e+03 1.666759177802315435e+03 1.665903665468876625e+03 1.665092955179984301e+03 1.664320930380268919e+03 1.663575923042015120e+03 1.662846961283925793e+03 1.662116283606160323e+03 1.661368814329562611e+03 1.660621489875225961e+03 1.659931692356386520e+03 1.659303795601619868e+03 1.658657242805360738e+03 1.657953768468295721e+03 1.657235325588394062e+03 1.656511493411882839e+03 1.655771432778865119e+03 1.655025864434592677e+03 1.654292438060599125e+03 1.653558584652128729e+03 1.652787532142509917e+03 1.651984620151695935e+03 1.651191309560558238e+03 1.650464940873696605e+03 1.649896790022941104e+03 1.649618647974964233e+03 1.649723925004280318e+03 1.650153956158901110e+03 1.650747431521310546e+03 1.651380081752414526e+03 1.652006421385958902e+03 1.652622701571499420e+03 1.653229000000000042e+03
1.706675999999999931e+03 1.706542999999999893e+03 1.706565322048335474e+03 1.706558771510196721e+03 1.706517472827346182e+03 1.706425635033682056e+03 1.706279090072017652e+03 1.706075768095364992e+03 1.705806364989603708e+03 1.705466583949160849e+03 1.705070579282756626e+03 1.704632698825262196e+03 1.704138042962987811e+03 1.703572531110075943e+03 1.702942619528519117e+03 1.702272987190626054e+03 1.701611617946966362e+03 1.701006880506260131e+03 1.700442111625264488e+03 1.699841279961023474e+03 1.699173084349151395e+03 1.698457924037898692e+03 1.697722938711200413e+03 1.696983595419832227e+03 1.696243521278023763e+03 1.695500792538786754e+03 1.694752211637516211e+03 1.693993032700293270e+03 1.693216193834004571e+03 1.692419693253670403e+03 1.691623286254282903e+03 1.690858887917294396e+03 1.690130183028406464e+03 1.689422719908485305e+03 1.688722095838247697e+03 1.688008950985975162e+03 1.687254752438956984e+03 1.686451709389697271e+03 1.685626861820403519e+03 1.684809494922839576e+03 1.684011052688691962e+03 1.683237268960918072e+03 1.682461979820823672e+03 1.681642624304923856e+03 1.680776856690445811e+03 1.679914222164108423e+03 1.679093980070730595e+03 1.678344645798149031e+03 1.677674938665977606e+03 1.677085710310080458e+03 1.676545665814686572e+03 1.675867463639810239e+03 1.674959179572809944e+03 1.673965172947270730e+03 1.673062582325897893e+03 1.672306986494304283e+03 1.671669378487043105e+03 1.671094774194853699e+03 1.670513580101090156e+03 1.669839539747309345e+03 1.669062604188679416e+03 1.668282649015822244e+03 1.667500684788941498e+03 1.666669253309062242e+03 1.665840499657050714e+03 1.665045172315715718e+03 1.664274362673417727e+03 1.663516690007504394e+03 1.662764827311653562e+03 1.662009467089417285e+03 1.661244779610986370e+03 1.660497801045852157e+03 1.659825413757515207e+03 1.659208210386718974e+03 1.658555697466478250e+03 1.657840973682476488e+03 1.657107374309076022e+03 1.656366048945298189e+03 1.655612140749540913e+03 1.654858168767384541e+03 1.654122238928178149e+03 1.653387635652346489e+03 1.652605696615036777e+03 1.651785317856302299e+03 1.650976059591194598e+03 1.650231171646090388e+03 1.649636314403907591e+03 1.649328493755321233e+03 1.649404488310705347e+03 1.649807318050322920e+03 1.650381667835114058e+03 1.651014072617730335e+03 1.651664409420686752e+03 1.652326972249133178e+03 1.653028999999999996e+03
1.705898999999999887e+03 1.706058999999999969e+03 1.706104213993781968e+03 1.706126605412465551e+03 1.706112269427236697e+03 1.706049314240096692e+03 1.705934123831412307e+03 1.705759900599703542e+03 1.705515258393564181e+03 1.705201042128544032e+03 1.704837092973116796e+03 1.704433609570207636e+03 1.703972139535245333e+03 1.703436148319139875e+03 1.702826839963288876e+03 1.702162955471009354e+03 1.701493714425408825e+03 1.700877438029204541e+03 1.700307371820011213e+03 1.699708737612755385e+03 1.699045688627276377e+03 1.698336451775384376e+03 1.697607524755475652e+03 1.696874301861093954e+03 1.696142425497573640e+03 1.695411306770076408e+03 1.694678755858258228e+03 1.693941160756003228e+03 1.693190052045316861e+03 1.692416750261851803e+03 1.691632835176695153e+03 1.690868260968172081e+03 1.690128214229416699e+03 1.689392051021853149e+03 1.688638375960597159e+03 1.687857793215427364e+03 1.687049574584690390e+03 1.686230022717741576e+03 1.685429013688385339e+03 1.684664871383758509e+03 1.683932379873414902e+03 1.683213131897235598e+03 1.682465810874480667e+03 1.681644990203011957e+03 1.680761880881181241e+03 1.679888026972678745e+03 1.679044040782164757e+03 1.678247272948812451e+03 1.677520674179534581e+03 1.676868626832067548e+03 1.676254545968811954e+03 1.675541512432323998e+03 1.674688877597962119e+03 1.673791552895121868e+03 1.672953937311897562e+03 1.672215349793810901e+03 1.671567401261233726e+03 1.670978932724657852e+03 1.670394206583941695e+03 1.669724976863210941e+03 1.668940666170141185e+03 1.668136508677836900e+03 1.667350340110287561e+03 1.666559278564170427e+03 1.665777944123948146e+03 1.665011509996894802e+03 1.664249788079083601e+03 1.663483963777872077e+03 1.662710028707010451e+03 1.661926373613892338e+03 1.661139935319835331e+03 1.660391379309791319e+03 1.659735064987412898e+03 1.659128058523768686e+03 1.658473360258491311e+03 1.657751278883643408e+03 1.657003393106658223e+03 1.656242988513361297e+03 1.655469410963571590e+03 1.654696403748507237e+03 1.653946870157981493e+03 1.653210337934856852e+03 1.652434129614397989e+03 1.651619697584882942e+03 1.650811762527529481e+03 1.650055515967379506e+03 1.649427902813028595e+03 1.649067996572467109e+03 1.649082433021784709e+03 1.649435708435907827e+03 1.649988513590356433e+03 1.650629646247173469e+03 1.651306279190309169e+03 1.651990035365540734e+03 1.652680000000000064e+03
1.705421000000000049e+03 1.705574000000000069e+03 1.705643657609132333e+03 1.705694673976199056e+03 1.705706887469194044e+03 1.705671835384150427e+03 1.705585237894102420e+03 1.705436091615083342e+03 1.705214985027595503e+03 1.704925598295271357e+03 1.704586940810082069e+03 1.704207727327654538e+03 1.703772645733770105e+03 1.703264769738320183e+03 1.702678667888189239e+03 1.702026443557429729e+03 1.701359073065502344e+03 1.700743405677764940e+03 1.700177857808916542e+03 1.699585321803530860e+03 1.698928152299116391e+03 1.698225133993468262e+03 1.697502852037704315e+03 1.696776505237276069e+03 1.696053052667091379e+03 1.695332699701812089e+03 1.694615011513968739e+03 1.693899023475363720e+03 1.693175741297350442e+03 1.692429390209921621e+03 1.691660267863896934e+03 1.690891874655545962e+03 1.690133714328490441e+03 1.689368709590158232e+03 1.688577334756124401e+03 1.687758972614848517e+03 1.686925491075110813e+03 1.686100707108785627e+03 1.685313597921508972e+03 1.684578002873657169e+03 1.683874507821274847e+03 1.683165117574645592e+03 1.682413460385887220e+03 1.681592127993221993e+03 1.680723920440514121e+03 1.679879974977030770e+03 1.679040539437500911e+03 1.678208370853014458e+03 1.677431826590315040e+03 1.676723475538787397e+03 1.676049436344165997e+03 1.675321870423224027e+03 1.674526216998017162e+03 1.673704329631364999e+03 1.672898976235420832e+03 1.672148677518155864e+03 1.671470095242035768e+03 1.670849147272312621e+03 1.670238770535930371e+03 1.669561365402530100e+03 1.668787387530622254e+03 1.667990912169212606e+03 1.667217775597491482e+03 1.666462713626574669e+03 1.665718364394611854e+03 1.664975290819308839e+03 1.664223420057617659e+03 1.663454417377595291e+03 1.662665174324295549e+03 1.661858726969657255e+03 1.661054114627121635e+03 1.660304449316221508e+03 1.659655608802139113e+03 1.659045878490700034e+03 1.658381025457141277e+03 1.657651784349787931e+03 1.656898411931283817e+03 1.656129194320592433e+03 1.655340087050999728e+03 1.654543437576987571e+03 1.653765408489369747e+03 1.653007024780430129e+03 1.652228281314318792e+03 1.651426866331016754e+03 1.650636299076661317e+03 1.649888265513234728e+03 1.649242828592578235e+03 1.648829747469306312e+03 1.648767026176552918e+03 1.649054455310590356e+03 1.649580826000572870e+03 1.650232447373083232e+03 1.650933922555054323e+03 1.651635176208614666e+03 1.652337999999999965e+03
1.704943999999999960e+03 1.705039999999999964e+03 1.705176109162307966e+03 1.705259062528658433e+03 1.705294395790401268e+03 1.705283045392350004e+03 1.705220448802694591e+03 1.705093473283330241e+03 1.704897719857757693e+03 1.704638429327550966e+03 1.704329006889628317e+03 1.703974859829953402e+03 1.703564250127979221e+03 1.703082606187948159e+03 1.702520441304720407e+03 1.701884468220446479e+03 1.701225979825224158e+03 1.700617650438953660e+03 1.700062250234902876e+03 1.699478901631008739e+03 1.698828163230625933e+03 1.698129773177704919e+03 1.697412072982524251e+03 1.696691376323848999e+03 1.695974785535471710e+03 1.695261494303795644e+03 1.694552819730326974e+03 1.693851351025306030e+03 1.693148805897063539e+03 1.692426031819609307e+03 1.691674242584160311e+03 1.690905208301856192e+03 1.690128365893048567e+03 1.689336763272724284e+03 1.688522086364143888e+03 1.687689012600509386e+03 1.686848856192176072e+03 1.686026595669554126e+03 1.685250235943516145e+03 1.684532174074747900e+03 1.683843288634640430e+03 1.683126141484351820e+03 1.682350103473268746e+03 1.681519146389583057e+03 1.680673152107550322e+03 1.679869899407515504e+03 1.679047150510614074e+03 1.678188253561824922e+03 1.677371333280330418e+03 1.676623797816012484e+03 1.675913501671782342e+03 1.675189116104048935e+03 1.674446427980111594e+03 1.673683205041535075e+03 1.672895042609264010e+03 1.672123659623186995e+03 1.671411881597720367e+03 1.670759649809437860e+03 1.670123194257722389e+03 1.669437547268929620e+03 1.668682393026290129e+03 1.667906839625044313e+03 1.667147302507748236e+03 1.666406330154859916e+03 1.665669954806996429e+03 1.664928007770849490e+03 1.664176713643789071e+03 1.663407648161410179e+03 1.662613602295440160e+03 1.661794879756329919e+03 1.660978287408852339e+03 1.660227576382764710e+03 1.659575696127762967e+03 1.658949265508435701e+03 1.658267189669791378e+03 1.657532517148025136e+03 1.656783943631864986e+03 1.656020314572710049e+03 1.655228650452657803e+03 1.654417757004072655e+03 1.653614801904631804e+03 1.652829189628122094e+03 1.652037460429987050e+03 1.651236465440930715e+03 1.650452641080575177e+03 1.649713058684465977e+03 1.649065289542876144e+03 1.648618256561601584e+03 1.648486953359641348e+03 1.648700848423970001e+03 1.649186667578450397e+03 1.649832265998570165e+03 1.650541665058189210e+03 1.651248891324399665e+03 1.651962999999999965e+03
1.704551999999999907e+03 1.704604000000000042e+03 1.704735980951097190e+03 1.704833229429960738e+03 1.704886581859621401e+03 1.704895128843929342e+03 1.704852438536875525e+03 1.704745830116981324e+03 1.704574486288788648e+03 1.704343937121033832e+03 1.704064493097954482e+03 1.703738876846357243e+03 1.703355144465520880e+03 1.702899014795823177e+03 1.702357881334592548e+03 1.701736541856992972e+03 1.701088847745194016e+03 1.700490859413544968e+03 1.699947083707956153e+03 1.699373094726058071e+03 1.698728487070462961e+03 1.698034665210409230e+03 1.697322870618384513e+03 1.696609982706660276e+03 1.695900221786955626e+03 1.695189659826244679e+03 1.694481962621796811e+03 1.693784743828515047e+03 1.693091826699589092e+03 1.692384932005644259e+03 1.691651276268171387e+03 1.690890292442691589e+03 1.690105120143785371e+03 1.689298102756473781e+03 1.688475802132962599e+03 1.687643612189692249e+03 1.686802019994810507e+03 1.685977741843885042e+03 1.685203004144520719e+03 1.684493231763825406e+03 1.683819379989502977e+03 1.683107507902617726e+03 1.682314303782186471e+03 1.681460622686365241e+03 1.680606301046679391e+03 1.679812199102099612e+03 1.679006891810044635e+03 1.678149549527662884e+03 1.677319856833533322e+03 1.676550985887825391e+03 1.675812116072653453e+03 1.675089520990868095e+03 1.674394313175794878e+03 1.673689136565832086e+03 1.672925449441988803e+03 1.672136683720154451e+03 1.671390827276369464e+03 1.670710197466181626e+03 1.670057674450124523e+03 1.669375574103488361e+03 1.668645526738563376e+03 1.667892474410082059e+03 1.667141382875948239e+03 1.666399675820547600e+03 1.665650185212217821e+03 1.664886148682870726e+03 1.664121132772830833e+03 1.663352859141423778e+03 1.662563775822458410e+03 1.661740468075858416e+03 1.660912770028152863e+03 1.660156511193601318e+03 1.659493660851757795e+03 1.658845365713489173e+03 1.658147129889077178e+03 1.657409411994693983e+03 1.656665824078054811e+03 1.655910893367461085e+03 1.655128726700252628e+03 1.654326934771843298e+03 1.653528138262485754e+03 1.652735160746671227e+03 1.651928747921565446e+03 1.651107347501482081e+03 1.650301172686049085e+03 1.649546734091610233e+03 1.648891275298022265e+03 1.648422621720029383e+03 1.648238144996291339e+03 1.648381356023900480e+03 1.648814913445629372e+03 1.649430763566855831e+03 1.650119337193954607e+03 1.650808441933445465e+03 1.651515000000000100e+03
1.704078999999999951e+03 1.704182999999999993e+03 1.704299671742527607e+03 1.704408925411689097e+03 1.704482034632864725e+03 1.704510598365433907e+03 1.704486496314193573e+03 1.704399730633388117e+03 1.704250278818351262e+03 1.704044962133364152e+03 1.703796416228728503e+03 1.703505598162650585e+03 1.703154436098960559e+03 1.702722428547593154e+03 1.702194021208099912e+03 1.701578781222572161e+03 1.700938553925250289e+03 1.700351799578671944e+03 1.699821135633544145e+03 1.699258231414840793e+03 1.698620247587385393e+03 1.697931228524319295e+03 1.697227105819942835e+03 1.696524194025693077e+03 1.695821434172985164e+03 1.695111827841325976e+03 1.694401222837594560e+03 1.693701737431373658e+03 1.693009447691406422e+03 1.692308685258537707e+03 1.691586057232294479e+03 1.690833272460029093e+03 1.690049082309065170e+03 1.689245186889891556e+03 1.688440013252523386e+03 1.687629703965694262e+03 1.686790040458387011e+03 1.685949134713001968e+03 1.685154751221900142e+03 1.684432118828710372e+03 1.683760405437816871e+03 1.683063306404431160e+03 1.682276874258345288e+03 1.681408923474232324e+03 1.680524056128522716e+03 1.679704609421140503e+03 1.678913969433288912e+03 1.678100518733547688e+03 1.677307497199285308e+03 1.676548805849853125e+03 1.675787793410990844e+03 1.675047262036124721e+03 1.674369596836436131e+03 1.673704098915592567e+03 1.672967052690838500e+03 1.672169119811568407e+03 1.671391754095037868e+03 1.670682900180299839e+03 1.670017831701838986e+03 1.669341435946984802e+03 1.668630380616051752e+03 1.667890091386790573e+03 1.667141140935135127e+03 1.666401688123188023e+03 1.665647283360141046e+03 1.664862964456860027e+03 1.664078807787384676e+03 1.663306279914574134e+03 1.662520891563727218e+03 1.661693622104593260e+03 1.660854978643214508e+03 1.660090508484711791e+03 1.659411538072882649e+03 1.658740809121118673e+03 1.658030410129490065e+03 1.657290989017012180e+03 1.656546446723913505e+03 1.655794684521004910e+03 1.655028391458082524e+03 1.654256803617933656e+03 1.653487518363268009e+03 1.652703171594669584e+03 1.651882863923303830e+03 1.651033420221987626e+03 1.650192026226650114e+03 1.649403775302146414e+03 1.648720361889721062e+03 1.648219275491499047e+03 1.647986288914458555e+03 1.648072756593395070e+03 1.648458589342656524e+03 1.649031543344882039e+03 1.649670995965597285e+03 1.650303085492040736e+03 1.650952999999999975e+03
1.703465999999999894e+03 1.703685999999999922e+03 1.703834791260690963e+03 1.703965247801771056e+03 1.704060930083272751e+03 1.704111909980953442e+03 1.704110306079342308e+03 1.704048728393785950e+03 1.703925368047095617e+03 1.703748665259834524e+03 1.703535263115400994e+03 1.703285204009019935e+03 1.702971103987277729e+03 1.702560080192506575e+03 1.702035087645848535e+03 1.701418185564045871e+03 1.700781099313855520e+03 1.700202203753021195e+03 1.699682609245026697e+03 1.699133084019878424e+03 1.698504842524278729e+03 1.697821532586679041e+03 1.697123786123345326e+03 1.696428428749071372e+03 1.695730951595473925e+03 1.695023383498473777e+03 1.694311786093263436e+03 1.693609623930735552e+03 1.692913974051086143e+03 1.692211531831432694e+03 1.691489353401717608e+03 1.690737572405164656e+03 1.689958493205272134e+03 1.689175491368972644e+03 1.688413125979981032e+03 1.687648233900667037e+03 1.686819603722056172e+03 1.685949696456042602e+03 1.685109939432709098e+03 1.684343975146568027e+03 1.683643747563309716e+03 1.682945901397078615e+03 1.682180935412852477e+03 1.681332919134491931e+03 1.680448535435061558e+03 1.679614236732440986e+03 1.678835935602639438e+03 1.678079050998171851e+03 1.677351066745300841e+03 1.676629279817910401e+03 1.675855166159737337e+03 1.675073302944415673e+03 1.674365704103462576e+03 1.673700100078977357e+03 1.672980000389706220e+03 1.672189362562615088e+03 1.671397630088492633e+03 1.670662596214614950e+03 1.669976819392987636e+03 1.669294308425990494e+03 1.668588749487753375e+03 1.667846887246012784e+03 1.667086204139844085e+03 1.666346241742396160e+03 1.665602566432125059e+03 1.664822349622511183e+03 1.664031043485647842e+03 1.663248344824705327e+03 1.662454636973609695e+03 1.661620382029986331e+03 1.660779877558835096e+03 1.660018198637803607e+03 1.659329520611269800e+03 1.658643835746150899e+03 1.657927249611771458e+03 1.657185163553362372e+03 1.656431509234474106e+03 1.655671070365103787e+03 1.654909933960667786e+03 1.654159072065082455e+03 1.653409170273593418e+03 1.652628827634043773e+03 1.651802319744313991e+03 1.650944714092478080e+03 1.650089949661217588e+03 1.649276772070961215e+03 1.648557002938602182e+03 1.648009976051025660e+03 1.647726723478121585e+03 1.647768718900730164e+03 1.648113899370921217e+03 1.648638845636309725e+03 1.649211461162746446e+03 1.649740244706943486e+03 1.650154999999999973e+03
1.702963999999999942e+03 1.703201000000000022e+03 1.703355177622211613e+03 1.703497810908447491e+03 1.703610803009503798e+03 1.703684621288596645e+03 1.703711796715695300e+03 1.703683965185400439e+03 1.703594170610021592e+03 1.703450886621514428e+03 1.703274178881837997e+03 1.703066039571024248e+03 1.702791535671521160e+03 1.702401870219802731e+03 1.701877974817511131e+03 1.701258086146808637e+03 1.700622285637298546e+03 1.700046401848052710e+03 1.699533424274311528e+03 1.698998576110431259e+03 1.698385703269310170e+03 1.697711224082649096e+03 1.697017225869663662e+03 1.696324640198910856e+03 1.695630542404613834e+03 1.694926480568334227e+03 1.694216760568746395e+03 1.693514016799522551e+03 1.692814761993401135e+03 1.692106353776051037e+03 1.691376459725977838e+03 1.690619204628490706e+03 1.689846361068194710e+03 1.689091592611141095e+03 1.688380448800718568e+03 1.687670474928574777e+03 1.686865189905089665e+03 1.685971779933060589e+03 1.685078288367820051e+03 1.684251115731179198e+03 1.683500318967373005e+03 1.682781423532903091e+03 1.682037010626613437e+03 1.681240226108835714e+03 1.680408524175963294e+03 1.679597401623856058e+03 1.678830985668524818e+03 1.678111508851454573e+03 1.677438306885963357e+03 1.676747492477691594e+03 1.675953477566303718e+03 1.675114455336208266e+03 1.674341965587763298e+03 1.673643994022397692e+03 1.672938959230321643e+03 1.672186990288785637e+03 1.671411818362255872e+03 1.670656300329714668e+03 1.669935110245683063e+03 1.669225366259003749e+03 1.668508848109107248e+03 1.667756902533758876e+03 1.666976631831905706e+03 1.666225027979656716e+03 1.665488442183387178e+03 1.664725272606104681e+03 1.663943543054562042e+03 1.663156467914468521e+03 1.662350618833617318e+03 1.661511526341224453e+03 1.660683224567829257e+03 1.659939038046070436e+03 1.659250675192704648e+03 1.658558202194269370e+03 1.657838040828057729e+03 1.657088610554427532e+03 1.656317296554836503e+03 1.655534807783674751e+03 1.654756759365890048e+03 1.653996166355202377e+03 1.653239705304790277e+03 1.652458572583112755e+03 1.651644264061837248e+03 1.650809789464381538e+03 1.649974583306446902e+03 1.649159271446501407e+03 1.648410098617539461e+03 1.647815022390446074e+03 1.647480910418410303e+03 1.647480008260533396e+03 1.647781987196444788e+03 1.648256471378676451e+03 1.648773303977045089e+03 1.649257363032773810e+03 1.649685999999999922e+03
1.702509999999999991e+03 1.702676999999999907e+03 1.702865505205897989e+03 1.703017883433083625e+03 1.703141883491973431e+03 1.703235321825568462e+03 1.703290698954940581e+03 1.703296514622325503e+03 1.703240592653638032e+03 1.703129906273271217e+03 1.702985637718886892e+03 1.702813974301883718e+03 1.702579392944034680e+03 1.702220065248490073e+03 1.701709172825391306e+03 1.701094698845062567e+03 1.700463025491395911e+03 1.699888426189840857e+03 1.699377785519553981e+03 1.698854839372677361e+03 1.698258642672524502e+03 1.697593818860296551e+03 1.696900187807641032e+03 1.696206071074818738e+03 1.695515028100504878e+03 1.694817553057730947e+03 1.694114357391654949e+03 1.693415797462081400e+03 1.692716467474708452e+03 1.692001815888952706e+03 1.691260350897093304e+03 1.690495171793449572e+03 1.689727203205483875e+03 1.688992569040379522e+03 1.688314340720066866e+03 1.687643175749431975e+03 1.686866407018959080e+03 1.685973128067482776e+03 1.685046949615296171e+03 1.684170012052175025e+03 1.683374055422756555e+03 1.682632203613838556e+03 1.681902884784395155e+03 1.681162669357190907e+03 1.680407960513991611e+03 1.679648340386234395e+03 1.678893952341197746e+03 1.678176145565971638e+03 1.677511252044104822e+03 1.676813030809990778e+03 1.675986698222890709e+03 1.675101664689096879e+03 1.674273862231525982e+03 1.673548071469844672e+03 1.672872263928236180e+03 1.672184634046767769e+03 1.671445104294906741e+03 1.670670109006565326e+03 1.669900381019571569e+03 1.669142119943501257e+03 1.668394793190433575e+03 1.667630269966035712e+03 1.666842719536948835e+03 1.666080096421727376e+03 1.665338501407650483e+03 1.664589832522430015e+03 1.663834106003465195e+03 1.663064545229917258e+03 1.662257497261404524e+03 1.661414784096288258e+03 1.660598329018542017e+03 1.659870111754707523e+03 1.659182958787144798e+03 1.658485846214175353e+03 1.657760132011010000e+03 1.656998165186078040e+03 1.656206351200331483e+03 1.655401031995613721e+03 1.654601954844374177e+03 1.653822664603568683e+03 1.653054280077310978e+03 1.652276385177562588e+03 1.651482123863696870e+03 1.650677751465631218e+03 1.649870375656323404e+03 1.649063124386313575e+03 1.648292862258084824e+03 1.647654238001215845e+03 1.647267323198981103e+03 1.647211291779692601e+03 1.647454098651604454e+03 1.647869338696744535e+03 1.648337906722681964e+03 1.648800254193214414e+03 1.649252999999999929e+03
1.702000999999999976e+03 1.702269000000000005e+03 1.702394807976632819e+03 1.702537085188824676e+03 1.702667987234303837e+03 1.702777633536392386e+03 1.702853038049909173e+03 1.702882622993588029e+03 1.702855296551520723e+03 1.702774607315788899e+03 1.702658065264027300e+03 1.702516600094496880e+03 1.702321447309572704e+03 1.702003594050887614e+03 1.701522115155673873e+03 1.700925108522474602e+03 1.700304114693749398e+03 1.699733573850658559e+03 1.699221466746266515e+03 1.698701101945852088e+03 1.698112700616674147e+03 1.697452119341701746e+03 1.696755863907545745e+03 1.696059207077617202e+03 1.695373520626178788e+03 1.694688900635620257e+03 1.694000622754276719e+03 1.693314595429533256e+03 1.692622398304359876e+03 1.691904572634706938e+03 1.691150331180190733e+03 1.690377171307374738e+03 1.689612665968538067e+03 1.688886358409407876e+03 1.688215645695785042e+03 1.687556940696818174e+03 1.686803859266874497e+03 1.685929762803329595e+03 1.684995191884713677e+03 1.684092559091759085e+03 1.683271363415509768e+03 1.682515527026531799e+03 1.681794640079594956e+03 1.681094607023674371e+03 1.680405983416550498e+03 1.679701579681203839e+03 1.678953941194165509e+03 1.678197089649807822e+03 1.677476812616184134e+03 1.676727703727617154e+03 1.675877411627872334e+03 1.674991474353252215e+03 1.674162042614391339e+03 1.673443316485125706e+03 1.672806376986373834e+03 1.672175360296819235e+03 1.671462418863403855e+03 1.670665405712050415e+03 1.669853334700880623e+03 1.669055853447531490e+03 1.668282640182339264e+03 1.667515235222515912e+03 1.666739673332072471e+03 1.665976268280892555e+03 1.665227156854046598e+03 1.664490999080399888e+03 1.663767418862881868e+03 1.663022843333457104e+03 1.662211999154493697e+03 1.661354471306478217e+03 1.660537746297263084e+03 1.659815458753133953e+03 1.659128466547301514e+03 1.658429727085903778e+03 1.657699283317306708e+03 1.656925711850007701e+03 1.656119116891004751e+03 1.655300667962023681e+03 1.654489643877314847e+03 1.653697565005027855e+03 1.652920733340306924e+03 1.652145731116901970e+03 1.651364843075577028e+03 1.650579955138507785e+03 1.649792382895848732e+03 1.648993013633488772e+03 1.648206853356922238e+03 1.647527445967236872e+03 1.647077639285190344e+03 1.646939222601212350e+03 1.647092736037131090e+03 1.647433897360876699e+03 1.647860456115913621e+03 1.648316970913718706e+03 1.648814000000000078e+03
1.701646999999999935e+03 1.701765000000000100e+03 1.701889659531168945e+03 1.702042346670195911e+03 1.702190401629140069e+03 1.702317536903592099e+03 1.702404709084199112e+03 1.702447974997030997e+03 1.702445564089940262e+03 1.702395699684144802e+03 1.702306911488802143e+03 1.702193665474591853e+03 1.702035329314143155e+03 1.701758700094193046e+03 1.701309820228108492e+03 1.700735633058050780e+03 1.700133163064156861e+03 1.699575362044445001e+03 1.699063492771545953e+03 1.698539423455057204e+03 1.697952276342369487e+03 1.697294873193874537e+03 1.696598453009130935e+03 1.695901764124152123e+03 1.695222784485706143e+03 1.694552839817975837e+03 1.693882788163388796e+03 1.693214010462395436e+03 1.692534034991398130e+03 1.691815161120000539e+03 1.691046289814046986e+03 1.690264105717736584e+03 1.689504653921009321e+03 1.688788728766224949e+03 1.688126996318216243e+03 1.687484060112688894e+03 1.686760094916120806e+03 1.685900201031912729e+03 1.684944717215334549e+03 1.684018113758151912e+03 1.683182874573585195e+03 1.682419364137424964e+03 1.681698480496937009e+03 1.681013080642365821e+03 1.680357642248230604e+03 1.679689260486246440e+03 1.678946633123754964e+03 1.678150761529324427e+03 1.677366324775445264e+03 1.676562235558729981e+03 1.675700643486426543e+03 1.674841913446607577e+03 1.674050938609380864e+03 1.673361773090052793e+03 1.672749547925177467e+03 1.672138888589372755e+03 1.671428722931051880e+03 1.670612209750397597e+03 1.669782527184426499e+03 1.668983711162299869e+03 1.668218097313483213e+03 1.667467644640451908e+03 1.666711429779203399e+03 1.665946247014156143e+03 1.665183666236943054e+03 1.664449740010352343e+03 1.663743421226195778e+03 1.663008625735420992e+03 1.662183327436251147e+03 1.661308000717424875e+03 1.660492616408493632e+03 1.659777403748895722e+03 1.659094265880316470e+03 1.658398364672198340e+03 1.657668094932135773e+03 1.656890558222641857e+03 1.656078539321930521e+03 1.655255075906367438e+03 1.654437638734806114e+03 1.653636069960644818e+03 1.652850639924872894e+03 1.652072121030989365e+03 1.651291784606322381e+03 1.650510587744115583e+03 1.649729538876367997e+03 1.648933925325045948e+03 1.648136564897878088e+03 1.647419061571509474e+03 1.646893831246723266e+03 1.646643301530603367e+03 1.646677740204112524e+03 1.646932324982960608e+03 1.647318181362783207e+03 1.647760309182931906e+03 1.648231999999999971e+03
1.701057000000000016e+03 1.701125000000000000e+03 1.701350408117815959e+03 1.701536690281274332e+03 1.701705326026402872e+03 1.701845636114159788e+03 1.701938142666529984e+03 1.701991334852950104e+03 1.702013948224600654e+03 1.701996284587692571e+03 1.701935035098048047e+03 1.701847966186014673e+03 1.701722002964980220e+03 1.701479850755411235e+03 1.701058226961411492e+03 1.700507069688846968e+03 1.699931105194616066e+03 1.699399658127094654e+03 1.698898928495240398e+03 1.698375233209806311e+03 1.697791798984700563e+03 1.697142455628045809e+03 1.696450303386172436e+03 1.695754030022502775e+03 1.695077780992757198e+03 1.694417720056909729e+03 1.693763133349506006e+03 1.693109841049443730e+03 1.692439433759046551e+03 1.691717077780938780e+03 1.690933930488794886e+03 1.690146103132422695e+03 1.689402640307639558e+03 1.688720084604579597e+03 1.688101667390680859e+03 1.687506307792726602e+03 1.686813672908573153e+03 1.685929526992677893e+03 1.684911704565859054e+03 1.683946884997966208e+03 1.683100843739611719e+03 1.682333297221622615e+03 1.681606362989668924e+03 1.680913877655348642e+03 1.680255297809162812e+03 1.679591235550699139e+03 1.678854000434185537e+03 1.678054702546478438e+03 1.677250818808016447e+03 1.676427744910783531e+03 1.675571914369787009e+03 1.674744760426706080e+03 1.673995175885188019e+03 1.673329834047915483e+03 1.672715968703603949e+03 1.672090002089135169e+03 1.671368186561211587e+03 1.670548128972281575e+03 1.669727210035876169e+03 1.668953117257664417e+03 1.668216802726405604e+03 1.667491005752487581e+03 1.666745101578864023e+03 1.665965680178759385e+03 1.665179902420056806e+03 1.664434896923130736e+03 1.663726002547510006e+03 1.662983001387506647e+03 1.662141115880242523e+03 1.661262260807560097e+03 1.660464979781537295e+03 1.659767115977015692e+03 1.659090856804572923e+03 1.658396870862326523e+03 1.657670286343505040e+03 1.656899438596012715e+03 1.656092862072742719e+03 1.655269514319312975e+03 1.654445764398169331e+03 1.653632881479221851e+03 1.652835111740412231e+03 1.652045710846840393e+03 1.651254404993702792e+03 1.650461686795543528e+03 1.649670951406120366e+03 1.648870464323656051e+03 1.648065543887003514e+03 1.647316515897663294e+03 1.646713196164635292e+03 1.646338171861277260e+03 1.646242645224551779e+03 1.646406097288763021e+03 1.646746441775746462e+03 1.647165222738590955e+03 1.647596999999999980e+03
1.700413999999999987e+03 1.700663999999999987e+03 1.700857960250860287e+03 1.701043482275720407e+03 1.701214416301768779e+03 1.701354871375890980e+03 1.701449537507937066e+03 1.701515381104232802e+03 1.701563458892747803e+03 1.701575024197565199e+03 1.701537382239335102e+03 1.701470483144934178e+03 1.701368344143598733e+03 1.701154017280261542e+03 1.700759404459918869e+03 1.700235899254825654e+03 1.699694692059667886e+03 1.699200947971350161e+03 1.698724822549188048e+03 1.698213741166602631e+03 1.697642846087830321e+03 1.697005608880258478e+03 1.696316765698465588e+03 1.695616401897322703e+03 1.694937227294352397e+03 1.694282241401467218e+03 1.693637961484472726e+03 1.692992113669988612e+03 1.692320997324074142e+03 1.691591176418748773e+03 1.690803441461124748e+03 1.690026981925946984e+03 1.689323238443209448e+03 1.688707519828368049e+03 1.688170260293324191e+03 1.687641346599679082e+03 1.686953633617270498e+03 1.685992396534059480e+03 1.684883154204850371e+03 1.683875593590989865e+03 1.683022291773692587e+03 1.682253741167243788e+03 1.681519817192128130e+03 1.680811609629672830e+03 1.680131765511182039e+03 1.679454848843943864e+03 1.678728459711342794e+03 1.677954794730969297e+03 1.677164357928690151e+03 1.676349927503984645e+03 1.675515244971144057e+03 1.674719318986097960e+03 1.674000249748599572e+03 1.673343917334063917e+03 1.672708789812017130e+03 1.672049246174089149e+03 1.671316201717960439e+03 1.670515107817661146e+03 1.669721518772364561e+03 1.668975135297987435e+03 1.668264756587554984e+03 1.667554269751630727e+03 1.666803007596191264e+03 1.665997959343650791e+03 1.665185370320886705e+03 1.664425824968192501e+03 1.663709078855297776e+03 1.662954494565584355e+03 1.662101796975646039e+03 1.661230412906019410e+03 1.660456561144411580e+03 1.659777302244996463e+03 1.659107066364757202e+03 1.658412828467210602e+03 1.657693744503409107e+03 1.656940798159474980e+03 1.656150808497147409e+03 1.655332401481515262e+03 1.654501127244824147e+03 1.653672571578493717e+03 1.652856248611130923e+03 1.652049057271789025e+03 1.651240292505620801e+03 1.650428661271937926e+03 1.649618819070886275e+03 1.648806524547977915e+03 1.647995657638784451e+03 1.647223003975641404e+03 1.646549880745839573e+03 1.646055696224846542e+03 1.645829046118105680e+03 1.645891112844327608e+03 1.646172007172664507e+03 1.646567276160973506e+03 1.647002999999999929e+03
1.700030999999999949e+03 1.700213999999999942e+03 1.700379556553020393e+03 1.700553948740855731e+03 1.700716128129900881e+03 1.700850624784420233e+03 1.700951486086498790e+03 1.701035611592605846e+03 1.701106523777417806e+03 1.701138780325493826e+03 1.701117686423984196e+03 1.701062710658340393e+03 1.700972207348937445e+03 1.700778544372393299e+03 1.700417374073424071e+03 1.699934212063180439e+03 1.699437476924516432e+03 1.698985956484387316e+03 1.698542572914462198e+03 1.698057324603181314e+03 1.697508100667349481e+03 1.696882433342084596e+03 1.696190685495329944e+03 1.695480653933312624e+03 1.694796705519300303e+03 1.694145969571757405e+03 1.693507419055914852e+03 1.692860541349097957e+03 1.692180871846205036e+03 1.691444360350549687e+03 1.690666179175976595e+03 1.689923594111790408e+03 1.689283609542780823e+03 1.688753765539612004e+03 1.688301184035770348e+03 1.687818023522828753e+03 1.687098326851425099e+03 1.686038159370317544e+03 1.684845334313794638e+03 1.683805190693060922e+03 1.682947737136581509e+03 1.682178979692332632e+03 1.681440506181711271e+03 1.680721502744248482e+03 1.680028632993268502e+03 1.679351589373078696e+03 1.678649002899476955e+03 1.677900974063692502e+03 1.677113405974224861e+03 1.676300200377025249e+03 1.675487820694370384e+03 1.674722862820037790e+03 1.674023332360040058e+03 1.673360049251746887e+03 1.672694166608858268e+03 1.672007845999399478e+03 1.671287401499293537e+03 1.670533373809834302e+03 1.669776594106037919e+03 1.669042142605088884e+03 1.668333991800865988e+03 1.667620420988279193e+03 1.666854429418157451e+03 1.666024804108335047e+03 1.665192161665878757e+03 1.664423234692481401e+03 1.663703120725771669e+03 1.662942201418405148e+03 1.662083253821859671e+03 1.661218190634092934e+03 1.660458330930139482e+03 1.659787731411465757e+03 1.659118794151593420e+03 1.658424826514868528e+03 1.657718415877538973e+03 1.656990887810210779e+03 1.656224772268504694e+03 1.655415973301041731e+03 1.654578022812390373e+03 1.653731253378064594e+03 1.652891472473733074e+03 1.652061770428443651e+03 1.651234441361858444e+03 1.650406325980582096e+03 1.649580908223297229e+03 1.648759298302418756e+03 1.647944547256655824e+03 1.647152991859082022e+03 1.646421939234085130e+03 1.645825131433785600e+03 1.645471568459540549e+03 1.645415142863363599e+03 1.645612226964158708e+03 1.645970969246126060e+03 1.646425999999999931e+03
1.699680000000000064e+03 1.699740999999999985e+03 1.699889833747653711e+03 1.700056132335994789e+03 1.700213148107719462e+03 1.700349339676105501e+03 1.700466733885237318e+03 1.700575306956236545e+03 1.700665706602235105e+03 1.700707698728929699e+03 1.700691862308276086e+03 1.700638799951364035e+03 1.700548181927754740e+03 1.700366266503977386e+03 1.700041893414679635e+03 1.699611292568721410e+03 1.699167741644187117e+03 1.698757816109452506e+03 1.698346416093251264e+03 1.697890615589821209e+03 1.697365383006381080e+03 1.696750384614270843e+03 1.696056579955511324e+03 1.695341102658725049e+03 1.694657928608047769e+03 1.694014870269855692e+03 1.693381240469454042e+03 1.692730015404343249e+03 1.692039986241414681e+03 1.691299385110921321e+03 1.690535591014593592e+03 1.689830306757238077e+03 1.689251771468448169e+03 1.688794405492712485e+03 1.688394735023433441e+03 1.687919158402671655e+03 1.687160031142345360e+03 1.686039666289089155e+03 1.684806311855321383e+03 1.683747664713600670e+03 1.682881883419747055e+03 1.682107251249481578e+03 1.681364991826852474e+03 1.680643520119963796e+03 1.679952932290052559e+03 1.679293605253410988e+03 1.678623900246004496e+03 1.677895228691666489e+03 1.677096676574398543e+03 1.676270152474839733e+03 1.675467589241193309e+03 1.674719740938032373e+03 1.674019251237655226e+03 1.673330079668557119e+03 1.672629802446868325e+03 1.671934589149233034e+03 1.671257026139124036e+03 1.670575759641205650e+03 1.669863119107139028e+03 1.669123024402054170e+03 1.668387870818724423e+03 1.667652845483761666e+03 1.666874731653350409e+03 1.666038351691716571e+03 1.665203976098523754e+03 1.664434554610684927e+03 1.663712252125661053e+03 1.662942234663005820e+03 1.662071443555032147e+03 1.661206504808279078e+03 1.660453663702524409e+03 1.659784349320567344e+03 1.659113324366683855e+03 1.658422059892217703e+03 1.657729553034006130e+03 1.657023673999912717e+03 1.656278675700841632e+03 1.655483013521009525e+03 1.654645735786463320e+03 1.653787743306059383e+03 1.652928898138383374e+03 1.652078350581093218e+03 1.651234239914931095e+03 1.650394371616506533e+03 1.649561656580509180e+03 1.648739865924447258e+03 1.647928744346395433e+03 1.647127692272316835e+03 1.646357805939715035e+03 1.645684314856759329e+03 1.645215740707116083e+03 1.645025969457237807e+03 1.645106515006925292e+03 1.645379895667253550e+03 1.645750000000000000e+03
1.698925999999999931e+03 1.699237000000000080e+03 1.699380156248267667e+03 1.699550014587025089e+03 1.699710593610170235e+03 1.699856994884360574e+03 1.699995995436941939e+03 1.700127618295706725e+03 1.700229187340316912e+03 1.700270484792642264e+03 1.700253121542922599e+03 1.700200090354612485e+03 1.700107974616836145e+03 1.699934194237838710e+03 1.699647880146992520e+03 1.699280477436751426e+03 1.698897984515548842e+03 1.698525815009747703e+03 1.698136631792493063e+03 1.697699252039255725e+03 1.697187109006328683e+03 1.696578797490778243e+03 1.695892829777354336e+03 1.695189838692552257e+03 1.694522666899298429e+03 1.693896208488285311e+03 1.693273346134789335e+03 1.692622462708085095e+03 1.691924189237484143e+03 1.691175655516601637e+03 1.690412236597391711e+03 1.689717005443685821e+03 1.689159954889989422e+03 1.688727680113904853e+03 1.688332986138323122e+03 1.687841535038455959e+03 1.687080449817640556e+03 1.685989338979568856e+03 1.684783163338119266e+03 1.683720527823030352e+03 1.682833126134105214e+03 1.682037815618248260e+03 1.681286563030174193e+03 1.680564427186101057e+03 1.679878108545979558e+03 1.679234712305288213e+03 1.678595381051569575e+03 1.677892225594082902e+03 1.677097580457338609e+03 1.676267795057379772e+03 1.675466560365872965e+03 1.674709568275104630e+03 1.673980161941740562e+03 1.673252524186994833e+03 1.672519984458831004e+03 1.671818580241203563e+03 1.671181113560160611e+03 1.670575768069987589e+03 1.669921335812389316e+03 1.669180673315809827e+03 1.668404230612833999e+03 1.667632651192804815e+03 1.666847841264235740e+03 1.666030820544179278e+03 1.665223452850489139e+03 1.664470365149713643e+03 1.663749499023968610e+03 1.662964689480729248e+03 1.662070879753756344e+03 1.661197052474472002e+03 1.660447164277451520e+03 1.659779578590599158e+03 1.659110458646912775e+03 1.658423835991111218e+03 1.657735840050954721e+03 1.657032818348037608e+03 1.656294128648425612e+03 1.655510912435001046e+03 1.654685031509847477e+03 1.653830040219369948e+03 1.652964457209215652e+03 1.652101414709602977e+03 1.651246160822930506e+03 1.650401542594321427e+03 1.649572886350765657e+03 1.648765105987520656e+03 1.647971887327979402e+03 1.647177511117797167e+03 1.646391645615504103e+03 1.645669256716722202e+03 1.645105370525029684e+03 1.644779569453707609e+03 1.644716830398938328e+03 1.644859036890050447e+03 1.645070999999999913e+03
1.698345000000000027e+03 1.698601000000000113e+03 1.698832695096406496e+03 1.699028189268884944e+03 1.699199779804385344e+03 1.699359376814683174e+03 1.699516410008706316e+03 1.699661861520989532e+03 1.699765823479841856e+03 1.699805893487285857e+03 1.699793400271402106e+03 1.699748709660709210e+03 1.699662408001237509e+03 1.699501332314056754e+03 1.699256877002382225e+03 1.698957409813385766e+03 1.698634740958256771e+03 1.698291515854950831e+03 1.697912035855457816e+03 1.697478214629136801e+03 1.696965138381273391e+03 1.696358378370272476e+03 1.695688749451866443e+03 1.695015134695664074e+03 1.694379287813589599e+03 1.693779005722966303e+03 1.693175929961877273e+03 1.692537002177559316e+03 1.691840406007858292e+03 1.691083403996430206e+03 1.690304344375282199e+03 1.689583721324076350e+03 1.688992511468299199e+03 1.688524322522604962e+03 1.688093653464723729e+03 1.687586367270088658e+03 1.686871683461990870e+03 1.685889698526558732e+03 1.684774826868687342e+03 1.683727589603618753e+03 1.682807616921914814e+03 1.681975894593356543e+03 1.681210852743846090e+03 1.680492913025037524e+03 1.679815357811459990e+03 1.679183683837627086e+03 1.678563107065084751e+03 1.677877635461948785e+03 1.677092268813529699e+03 1.676270684524016360e+03 1.675470563471122887e+03 1.674692029617031267e+03 1.673928277937102393e+03 1.673176004387822786e+03 1.672428083393124325e+03 1.671712322515424376e+03 1.671078799737742656e+03 1.670515860548912997e+03 1.669916896268151731e+03 1.669195009905752158e+03 1.668389154861956968e+03 1.667576897553167328e+03 1.666783661135729744e+03 1.665999647581492582e+03 1.665239315718182979e+03 1.664514173229350035e+03 1.663793204373400158e+03 1.662988307243356985e+03 1.662072143243832215e+03 1.661192498699964517e+03 1.660447743103253515e+03 1.659786197661891492e+03 1.659125518401529462e+03 1.658445541795851796e+03 1.657752560954879300e+03 1.657034516499829351e+03 1.656285289722910647e+03 1.655506483779099881e+03 1.654694488888738533e+03 1.653851652235485290e+03 1.652990381979346239e+03 1.652125382923826237e+03 1.651268608115229199e+03 1.650429339275235861e+03 1.649617413971544693e+03 1.648840021320843789e+03 1.648084969453950634e+03 1.647319475844848512e+03 1.646539235928825519e+03 1.645789450707641890e+03 1.645150058126970862e+03 1.644693216156153085e+03 1.644469168876856429e+03 1.644464850424764791e+03 1.644633000000000038e+03
1.697757000000000062e+03 1.698099999999999909e+03 1.698302304997371721e+03 1.698501609018014506e+03 1.698680451875777635e+03 1.698849602864339431e+03 1.699015686319867655e+03 1.699165268586256389e+03 1.699270287279801096e+03 1.699318152117216869e+03 1.699322681551793039e+03 1.699296508103175256e+03 1.699225880350413718e+03 1.699087208028905934e+03 1.698887217207107597e+03 1.698646006995220887e+03 1.698366346176676871e+03 1.698040215887107479e+03 1.697665196207386089e+03 1.697230981982550020e+03 1.696714946943631276e+03 1.696113648512764712e+03 1.695468173233223297e+03 1.694829721031347162e+03 1.694223821914393511e+03 1.693641785891921245e+03 1.693052540119535706e+03 1.692429765789989688e+03 1.691748968643567878e+03 1.690997686319326931e+03 1.690208422197588334e+03 1.689454977307751051e+03 1.688808668149675441e+03 1.688281534065976302e+03 1.687808723980097966e+03 1.687294312121382973e+03 1.686632371052963435e+03 1.685764572539921119e+03 1.684759236105101763e+03 1.683748073975594480e+03 1.682803694827666277e+03 1.681936268551224885e+03 1.681162821179605089e+03 1.680461342892093853e+03 1.679804334949353915e+03 1.679185249049125105e+03 1.678571747639506157e+03 1.677891646856312946e+03 1.677109911381813617e+03 1.676287225026786473e+03 1.675470829039843238e+03 1.674659821446281285e+03 1.673866642591532127e+03 1.673108147321548358e+03 1.672362771131437967e+03 1.671630045672199913e+03 1.670965460858719780e+03 1.670389153753417759e+03 1.669806861351906491e+03 1.669111394033660872e+03 1.668314607940001224e+03 1.667497097700470931e+03 1.666710826644483632e+03 1.665957134307305068e+03 1.665231761807684052e+03 1.664518577044708991e+03 1.663779843375766859e+03 1.662950560119090369e+03 1.662031987484762567e+03 1.661170045819702409e+03 1.660443860779052557e+03 1.659792714141025044e+03 1.659141085384482267e+03 1.658467235980874193e+03 1.657768246088603519e+03 1.657033834989071693e+03 1.656269417811649191e+03 1.655485953172518293e+03 1.654679673810720715e+03 1.653847179742890603e+03 1.652995531546230723e+03 1.652138709780768977e+03 1.651292059697361083e+03 1.650468426074919762e+03 1.649682122969241391e+03 1.648946514397660167e+03 1.648248472264505153e+03 1.647535080686538549e+03 1.646776932104267189e+03 1.646006327205433081e+03 1.645295603913394189e+03 1.644706596141676300e+03 1.644297729994928432e+03 1.644068989534063803e+03 1.643923000000000002e+03
1.697167999999999893e+03 1.697442000000000007e+03 1.697766102486699310e+03 1.697986836707484144e+03 1.698172088882156459e+03 1.698344014427131697e+03 1.698509842959552770e+03 1.698658969245140042e+03 1.698769909407970772e+03 1.698834109551930169e+03 1.698861102117553173e+03 1.698857177125886437e+03 1.698809979659453347e+03 1.698704254172352194e+03 1.698548749643868405e+03 1.698348387446646939e+03 1.698089557353677719e+03 1.697769142124465588e+03 1.697398218192020522e+03 1.696968658094193870e+03 1.696459497088216722e+03 1.695876538206251098e+03 1.695262432805079698e+03 1.694654838520219755e+03 1.694064395181797408e+03 1.693481129955619963e+03 1.692888153589460671e+03 1.692272563845316427e+03 1.691611246429705716e+03 1.690882396794759416e+03 1.690106862894748929e+03 1.689346928211263275e+03 1.688672083784670576e+03 1.688111046483443488e+03 1.687616538463221332e+03 1.687096408142022938e+03 1.686454078439666773e+03 1.685647380791111573e+03 1.684722264443436870e+03 1.683759696509896912e+03 1.682818057417315458e+03 1.681936820656632108e+03 1.681168930893251627e+03 1.680491171249178024e+03 1.679854394043341017e+03 1.679237066357345611e+03 1.678611753413007136e+03 1.677920078528155727e+03 1.677126628591370491e+03 1.676281124355541806e+03 1.675429952165745817e+03 1.674582833619878329e+03 1.673763819279005020e+03 1.673002061607158339e+03 1.672268029645752449e+03 1.671533830846615047e+03 1.670838737796546184e+03 1.670214702715677049e+03 1.669601078009356115e+03 1.668916023032464864e+03 1.668156320026488629e+03 1.667375757797633469e+03 1.666616985079777805e+03 1.665882199374957963e+03 1.665162376705537781e+03 1.664433393240765781e+03 1.663660337981995099e+03 1.662812622510630717e+03 1.661921445040696653e+03 1.661105645442185732e+03 1.660409874948656125e+03 1.659764858082855426e+03 1.659109825968097539e+03 1.658430576033148782e+03 1.657722646595341757e+03 1.656979713921336270e+03 1.656211443377947944e+03 1.655429262753700641e+03 1.654629454812081804e+03 1.653809025440158166e+03 1.652974255301466201e+03 1.652137249466372850e+03 1.651311876476657517e+03 1.650509966208700462e+03 1.649748586230778528e+03 1.649048637602665394e+03 1.648401179949776633e+03 1.647738614823204443e+03 1.647000034841128581e+03 1.646199779608414246e+03 1.645415758348337476e+03 1.644714873407941923e+03 1.644154909289870602e+03 1.643725898911432523e+03 1.643246000000000095e+03
1.697096999999999980e+03 1.697200000000000045e+03 1.697343999207690331e+03 1.697524046663402942e+03 1.697701696431339997e+03 1.697868785301097432e+03 1.698026829240091729e+03 1.698171412375943873e+03 1.698289779373699275e+03 1.698372495159864911e+03 1.698421284351124541e+03 1.698438730481035009e+03 1.698416364445050931e+03 1.698343465107328029e+03 1.698221857220692755e+03 1.698044188002678311e+03 1.697794480032530601e+03 1.697479024838704390e+03 1.697117990124461357e+03 1.696703842200076906e+03 1.696216786112890304e+03 1.695665685782378205e+03 1.695085324178081919e+03 1.694499291464682074e+03 1.693910606896216450e+03 1.693313975225226841e+03 1.692707387317752818e+03 1.692090296784110933e+03 1.691444330281655084e+03 1.690746411679588164e+03 1.690006317331562514e+03 1.689270659034334130e+03 1.688602067181427174e+03 1.688037321260096860e+03 1.687536335286566555e+03 1.687001943495292608e+03 1.686345719459300199e+03 1.685554105410965803e+03 1.684676967768066334e+03 1.683765877234520531e+03 1.682852396412909457e+03 1.681980348363868870e+03 1.681222897378229845e+03 1.680559358485748817e+03 1.679926596651062937e+03 1.679292402167379578e+03 1.678635256925625299e+03 1.677912678799775222e+03 1.677091564893885334e+03 1.676215088029023264e+03 1.675337024053011646e+03 1.674470982095010868e+03 1.673636249935247179e+03 1.672868413523221307e+03 1.672145754120171659e+03 1.671426828116259458e+03 1.670720524555968041e+03 1.670048783795443569e+03 1.669384205052368543e+03 1.668689824927029804e+03 1.667963755811140572e+03 1.667228339327243020e+03 1.666498851097634542e+03 1.665770394442750330e+03 1.665036564613014889e+03 1.664281163914625949e+03 1.663479958694224479e+03 1.662632764323699121e+03 1.661787501657240682e+03 1.661024642222782404e+03 1.660352015411420098e+03 1.659697254832125509e+03 1.659018729374549821e+03 1.658314318741234047e+03 1.657584367588794976e+03 1.656831948187621720e+03 1.656069621261327711e+03 1.655303582772679874e+03 1.654526675297772954e+03 1.653734481611483034e+03 1.652931134309906611e+03 1.652125404560146990e+03 1.651328186175275050e+03 1.650549312796170398e+03 1.649805579092177823e+03 1.649118729255606013e+03 1.648481257572860159e+03 1.647824949375889673e+03 1.647077139706386333e+03 1.646245284011234162e+03 1.645417972942979759e+03 1.644671112256014567e+03 1.644054652434398804e+03 1.643565889268599904e+03 1.643111000000000104e+03
1.696442999999999984e+03 1.696785000000000082e+03 1.696897030479652130e+03 1.697072825573733553e+03 1.697256420535895586e+03 1.697425626150620019e+03 1.697578166198780309e+03 1.697717850181993981e+03 1.697843333705093301e+03 1.697943510602716287e+03 1.698010421681180560e+03 1.698041991797179435e+03 1.698031333432753399e+03 1.697971680703846687e+03 1.697863034815259198e+03 1.697697755265370233e+03 1.697463318906268796e+03 1.697167481929859832e+03 1.696830588283581392e+03 1.696444883213139519e+03 1.695991301142321845e+03 1.695476742958602699e+03 1.694924899550891041e+03 1.694350958122065776e+03 1.693759431390586997e+03 1.693153407743640855e+03 1.692541214474991648e+03 1.691928327575517869e+03 1.691300899033879432e+03 1.690638671818782086e+03 1.689942467776948888e+03 1.689243395350281844e+03 1.688594793103500706e+03 1.688034276094045708e+03 1.687523174849141014e+03 1.686961769935693155e+03 1.686278080794827019e+03 1.685487496943087081e+03 1.684644341866329796e+03 1.683780594361838212e+03 1.682904573117798009e+03 1.682050176607366893e+03 1.681291835340036869e+03 1.680620089814495941e+03 1.679972596693342894e+03 1.679311928815722695e+03 1.678616971298089311e+03 1.677855730756401499e+03 1.677003842978100238e+03 1.676103412864074471e+03 1.675214867280037197e+03 1.674351277883058401e+03 1.673519859924066168e+03 1.672752479199178879e+03 1.672038578570533673e+03 1.671336182506684054e+03 1.670629412602075945e+03 1.669928532931317932e+03 1.669230029046620530e+03 1.668526642846193226e+03 1.667816811974656275e+03 1.667104035819097135e+03 1.666385804345526367e+03 1.665653323961816568e+03 1.664903811528083679e+03 1.664130625882963159e+03 1.663317741342995078e+03 1.662482508283494553e+03 1.661679011526806789e+03 1.660958612856613854e+03 1.660300719049978397e+03 1.659632090169993035e+03 1.658927254945455843e+03 1.658195129320025444e+03 1.657440491441966515e+03 1.656674922004216569e+03 1.655913694709059200e+03 1.655161085571759486e+03 1.654408350050202671e+03 1.653648185419157926e+03 1.652880097758897591e+03 1.652108501655944337e+03 1.651340933103882435e+03 1.650584106131428825e+03 1.649850351562109836e+03 1.649154555487022208e+03 1.648485608770628460e+03 1.647786980546666427e+03 1.647005401327443451e+03 1.646164054948709691e+03 1.645352659892890642e+03 1.644631513624324043e+03 1.644021544244572169e+03 1.643514821347454927e+03 1.643058999999999969e+03
1.695900000000000091e+03 1.696181000000000040e+03 1.696380052776906268e+03 1.696586695629053565e+03 1.696791020901783895e+03 1.696974949164455666e+03 1.697133525873038707e+03 1.697275799063777185e+03 1.697410492162892524e+03 1.697525910626753330e+03 1.697604226221116733e+03 1.697637127518411944e+03 1.697618700689721663e+03 1.697551207876043918e+03 1.697443455838208820e+03 1.697293896451498085e+03 1.697091406736293493e+03 1.696836935136262355e+03 1.696540701340385112e+03 1.696189808320967586e+03 1.695767387612824223e+03 1.695280603576415388e+03 1.694746677241681255e+03 1.694180218800154989e+03 1.693592694503584653e+03 1.692992780030033373e+03 1.692390497516098549e+03 1.691791286469516081e+03 1.691185475520431510e+03 1.690557915376834217e+03 1.689904428325248318e+03 1.689242891039084952e+03 1.688614976562674883e+03 1.688053633242158867e+03 1.687521515279715459e+03 1.686926034700280525e+03 1.686218852442885691e+03 1.685432241923832862e+03 1.684614067333341836e+03 1.683781763310431188e+03 1.682932674201015516e+03 1.682089541063248362e+03 1.681315443109431271e+03 1.680616327180649023e+03 1.679944195522907194e+03 1.679262104038190500e+03 1.678542762608868088e+03 1.677755763594859445e+03 1.676884894770878191e+03 1.675971024261504226e+03 1.675079481070935344e+03 1.674229816088153711e+03 1.673421729354858599e+03 1.672670898850900585e+03 1.671968144448688918e+03 1.671275116474170318e+03 1.670567102198618159e+03 1.669856501248731320e+03 1.669155091897371221e+03 1.668456550118481573e+03 1.667746881673580447e+03 1.667026845977856510e+03 1.666297319922143515e+03 1.665554394724740860e+03 1.664795720379830527e+03 1.664015132951234591e+03 1.663197408390826695e+03 1.662369802075205371e+03 1.661592870434891438e+03 1.660904115198721001e+03 1.660263426256277171e+03 1.659592896183261701e+03 1.658874414339289842e+03 1.658126226347614647e+03 1.657354436444150679e+03 1.656575187482336787e+03 1.655805491813260005e+03 1.655053202417843067e+03 1.654311213799573807e+03 1.653570931960600319e+03 1.652829636934769951e+03 1.652089323858939224e+03 1.651352857127222251e+03 1.650620612721696489e+03 1.649896473017232893e+03 1.649183430382121969e+03 1.648463102588902530e+03 1.647698240002023340e+03 1.646876098778403048e+03 1.646049466193740727e+03 1.645295104971531600e+03 1.644635012557650271e+03 1.644052578403326379e+03 1.643531634004423267e+03 1.643045000000000073e+03
