NCOLS 95
NROWS 40
xllcorner 429609
yllcorner 4568241
cellsize 1.0 
NODATA_value - 9999
1.714107999999999947e+03 1.713768000000000029e+03 1.713400000000000091e+03 1.712895999999999958e+03 1.712393000000000029e+03 1.711888999999999896e+03 1.711359999999999900e+03 1.710886999999999944e+03 1.710355000000000018e+03 1.709523999999999887e+03 1.708690000000000055e+03 1.708114000000000033e+03 1.707635999999999967e+03 1.706674999999999955e+03 1.705694999999999936e+03 1.704723999999999933e+03 1.704080999999999904e+03 1.703286000000000058e+03 1.702496000000000095e+03 1.701834000000000060e+03 1.701124000000000024e+03 1.700259999999999991e+03 1.699565000000000055e+03 1.698989000000000033e+03 1.698444999999999936e+03 1.697877999999999929e+03 1.696858999999999924e+03 1.695962999999999965e+03 1.695200000000000045e+03 1.694386999999999944e+03 1.693471999999999980e+03 1.692597999999999956e+03 1.691723999999999933e+03 1.690909000000000106e+03 1.690192999999999984e+03 1.689465999999999894e+03 1.688739000000000033e+03 1.688075000000000045e+03 1.687503999999999905e+03 1.687037000000000035e+03 1.686440000000000055e+03 1.685698000000000093e+03 1.684579999999999927e+03 1.683845000000000027e+03 1.683057000000000016e+03 1.682333000000000084e+03 1.681792999999999893e+03 1.681151000000000067e+03 1.680221000000000004e+03 1.679368999999999915e+03 1.678664999999999964e+03 1.677940000000000055e+03 1.677211000000000013e+03 1.676353000000000065e+03 1.676678000000000111e+03 1.675743999999999915e+03 1.674811999999999898e+03 1.673880000000000109e+03 1.673185999999999922e+03 1.672430000000000064e+03 1.672166999999999916e+03 1.671094000000000051e+03 1.670482999999999947e+03 1.669859999999999900e+03 1.669210000000000036e+03 1.668559999999999945e+03 1.667912000000000035e+03 1.667288000000000011e+03 1.666849999999999909e+03 1.666472999999999956e+03 1.665730000000000018e+03 1.664972999999999956e+03 1.664214999999999918e+03 1.663487000000000080e+03 1.662795000000000073e+03 1.662115000000000009e+03 1.661459000000000060e+03 1.660894999999999982e+03 1.660316000000000031e+03 1.659643000000000029e+03 1.658625999999999976e+03 1.658326000000000022e+03 1.658060999999999922e+03 1.657589999999999918e+03 1.656919000000000096e+03 1.656500999999999976e+03 1.655698000000000093e+03 1.655038999999999987e+03 1.654564000000000078e+03 1.654307000000000016e+03 1.654672000000000025e+03 1.655054000000000087e+03 1.655688000000000102e+03 1.656113000000000056e+03 1.656781999999999925e+03
1.713800999999999931e+03 1.713618999999999915e+03 1.713162000000000035e+03 1.712630000000000109e+03 1.712144999999999982e+03 1.711641000000000076e+03 1.711132000000000062e+03 1.710608999999999924e+03 1.710114000000000033e+03 1.709428000000000111e+03 1.708521999999999935e+03 1.707972999999999956e+03 1.707336999999999989e+03 1.706161000000000058e+03 1.705243999999999915e+03 1.704621000000000095e+03 1.703861000000000104e+03 1.702954999999999927e+03 1.702324000000000069e+03 1.701684999999999945e+03 1.701118999999999915e+03 1.700269999999999982e+03 1.699507000000000062e+03 1.698903999999999996e+03 1.698336000000000013e+03 1.697769000000000005e+03 1.697163999999999987e+03 1.696112000000000080e+03 1.695059999999999945e+03 1.694147999999999911e+03 1.693279999999999973e+03 1.692430000000000064e+03 1.691578999999999951e+03 1.690826999999999998e+03 1.690144999999999982e+03 1.689351000000000113e+03 1.688544000000000096e+03 1.687825000000000045e+03 1.687298000000000002e+03 1.686838999999999942e+03 1.686332000000000107e+03 1.685328999999999951e+03 1.684525000000000091e+03 1.683782999999999902e+03 1.683026000000000067e+03 1.682236000000000104e+03 1.681720000000000027e+03 1.681075000000000045e+03 1.679996000000000095e+03 1.679153000000000020e+03 1.678449000000000069e+03 1.677743999999999915e+03 1.676973999999999933e+03 1.676471000000000004e+03 1.676548999999999978e+03 1.675685999999999922e+03 1.674792999999999893e+03 1.673900000000000091e+03 1.673007000000000062e+03 1.672173999999999978e+03 1.671570999999999913e+03 1.670853000000000065e+03 1.670241999999999962e+03 1.669631000000000085e+03 1.668994999999999891e+03 1.668345000000000027e+03 1.667693999999999960e+03 1.667044000000000096e+03 1.666626999999999953e+03 1.666393000000000029e+03 1.665489000000000033e+03 1.664731999999999971e+03 1.663973999999999933e+03 1.663250999999999976e+03 1.662519000000000005e+03 1.661832000000000107e+03 1.661145999999999958e+03 1.660460000000000036e+03 1.659805000000000064e+03 1.659211000000000013e+03 1.658502999999999929e+03 1.658288999999999987e+03 1.657796000000000049e+03 1.657148999999999887e+03 1.656472999999999956e+03 1.655901000000000067e+03 1.655251999999999953e+03 1.654624000000000024e+03 1.654148999999999887e+03 1.654041999999999916e+03 1.654401000000000067e+03 1.654948000000000093e+03 1.655667999999999893e+03 1.656070999999999913e+03 1.656794000000000096e+03
1.713521999999999935e+03 1.713425999999999931e+03 1.712932000000000016e+03 1.712317000000000007e+03 1.711852000000000089e+03 1.711393000000000029e+03 1.710880000000000109e+03 1.710377999999999929e+03 1.709836000000000013e+03 1.709246000000000095e+03 1.708327999999999975e+03 1.707701000000000022e+03 1.707037000000000035e+03 1.705938000000000102e+03 1.705131000000000085e+03 1.704511999999999944e+03 1.703602000000000089e+03 1.702605999999999995e+03 1.702150000000000091e+03 1.701824000000000069e+03 1.701145999999999958e+03 1.700344000000000051e+03 1.699507000000000062e+03 1.698771999999999935e+03 1.698217000000000098e+03 1.697660000000000082e+03 1.697093000000000075e+03 1.696416999999999916e+03 1.695826000000000022e+03 1.693951999999999998e+03 1.693166999999999916e+03 1.692372000000000071e+03 1.691548999999999978e+03 1.690788999999999987e+03 1.690040999999999940e+03 1.689234999999999900e+03 1.688425999999999931e+03 1.687634999999999991e+03 1.687087999999999965e+03 1.686661000000000058e+03 1.686226000000000113e+03 1.685345000000000027e+03 1.684410000000000082e+03 1.683711000000000013e+03 1.682993999999999915e+03 1.682195999999999913e+03 1.681633000000000038e+03 1.681357999999999947e+03 1.679851000000000113e+03 1.678936999999999898e+03 1.678231999999999971e+03 1.677526000000000067e+03 1.676964999999999918e+03 1.676613000000000056e+03 1.675982999999999947e+03 1.675175999999999931e+03 1.674282999999999902e+03 1.673390000000000100e+03 1.672596999999999980e+03 1.671857999999999947e+03 1.671223999999999933e+03 1.670689000000000078e+03 1.670000999999999976e+03 1.669390000000000100e+03 1.668778999999999996e+03 1.668130000000000109e+03 1.667480000000000018e+03 1.666886999999999944e+03 1.666403999999999996e+03 1.666183999999999969e+03 1.665605999999999995e+03 1.664640000000000100e+03 1.663732999999999947e+03 1.662935999999999922e+03 1.662169000000000096e+03 1.661501999999999953e+03 1.660770999999999958e+03 1.660034000000000106e+03 1.659290999999999940e+03 1.658824000000000069e+03 1.658548000000000002e+03 1.658136999999999944e+03 1.657435999999999922e+03 1.656727000000000089e+03 1.656059999999999945e+03 1.655393000000000029e+03 1.654807000000000016e+03 1.654226000000000113e+03 1.654205999999999904e+03 1.654030999999999949e+03 1.654163999999999987e+03 1.654731999999999971e+03 1.655348999999999933e+03 1.655963999999999942e+03 1.656796000000000049e+03
1.713200000000000045e+03 1.713057999999999993e+03 1.712689000000000078e+03 1.712096999999999980e+03 1.711539999999999964e+03 1.711141000000000076e+03 1.710608999999999924e+03 1.710092000000000098e+03 1.709604000000000042e+03 1.708865000000000009e+03 1.708090999999999894e+03 1.707400000000000091e+03 1.706736000000000104e+03 1.705800999999999931e+03 1.705016000000000076e+03 1.704310999999999922e+03 1.703432999999999993e+03 1.702596000000000004e+03 1.702153000000000020e+03 1.701648999999999887e+03 1.700858999999999924e+03 1.700068999999999960e+03 1.699345000000000027e+03 1.698675999999999931e+03 1.698172000000000025e+03 1.697596999999999980e+03 1.696924999999999955e+03 1.695771999999999935e+03 1.694438000000000102e+03 1.693752999999999929e+03 1.692912000000000035e+03 1.692154999999999973e+03 1.691387999999999920e+03 1.690634999999999991e+03 1.689920000000000073e+03 1.689111000000000104e+03 1.688310999999999922e+03 1.687545000000000073e+03 1.686778999999999996e+03 1.686336000000000013e+03 1.686031999999999925e+03 1.685192000000000007e+03 1.684335000000000036e+03 1.683650000000000091e+03 1.682849999999999909e+03 1.681728000000000065e+03 1.681222999999999956e+03 1.681096999999999980e+03 1.679635999999999967e+03 1.678818999999999960e+03 1.678074000000000069e+03 1.677328999999999951e+03 1.676865000000000009e+03 1.676109999999999900e+03 1.675416999999999916e+03 1.674666999999999916e+03 1.673773999999999887e+03 1.672970000000000027e+03 1.672263999999999896e+03 1.671577999999999975e+03 1.671125000000000000e+03 1.670838999999999942e+03 1.670067000000000007e+03 1.669295000000000073e+03 1.668537000000000035e+03 1.667914999999999964e+03 1.667324000000000069e+03 1.666790999999999940e+03 1.666258000000000038e+03 1.666015000000000100e+03 1.665740000000000009e+03 1.664710000000000036e+03 1.663506000000000085e+03 1.662624000000000024e+03 1.661875000000000000e+03 1.661133000000000038e+03 1.660397999999999911e+03 1.659698000000000093e+03 1.659019999999999982e+03 1.658602000000000089e+03 1.658361000000000104e+03 1.657708000000000084e+03 1.656993999999999915e+03 1.656313000000000102e+03 1.655645999999999958e+03 1.655015000000000100e+03 1.654356999999999971e+03 1.654199000000000069e+03 1.654199000000000069e+03 1.654028999999999996e+03 1.653942000000000007e+03 1.654551999999999907e+03 1.655165999999999940e+03 1.655784000000000106e+03 1.656484999999999900e+03
1.712814000000000078e+03 1.712723999999999933e+03 1.712688000000000102e+03 1.712169000000000096e+03 1.711484999999999900e+03 1.710892000000000053e+03 1.710353000000000065e+03 1.709820999999999913e+03 1.709383000000000038e+03 1.708571999999999889e+03 1.707894000000000005e+03 1.707211000000000013e+03 1.706492999999999938e+03 1.705709000000000060e+03 1.704885999999999967e+03 1.704028999999999996e+03 1.703185999999999922e+03 1.702343000000000075e+03 1.701986000000000104e+03 1.701419000000000096e+03 1.700713999999999942e+03 1.700019999999999982e+03 1.699325000000000045e+03 1.698623000000000047e+03 1.697935999999999922e+03 1.697262999999999920e+03 1.696694999999999936e+03 1.695385999999999967e+03 1.694535000000000082e+03 1.693849999999999909e+03 1.692796000000000049e+03 1.691976000000000113e+03 1.691214999999999918e+03 1.690391000000000076e+03 1.689723999999999933e+03 1.688988000000000056e+03 1.688218000000000075e+03 1.687433999999999969e+03 1.686651000000000067e+03 1.686088999999999942e+03 1.685722999999999956e+03 1.685079999999999927e+03 1.684239000000000033e+03 1.683337999999999965e+03 1.682294000000000096e+03 1.681388999999999896e+03 1.680837999999999965e+03 1.680154999999999973e+03 1.679432000000000016e+03 1.678770999999999958e+03 1.678397999999999911e+03 1.677893000000000029e+03 1.676672000000000025e+03 1.675689000000000078e+03 1.674905999999999949e+03 1.674156999999999925e+03 1.673366999999999962e+03 1.672681000000000040e+03 1.671993999999999915e+03 1.671326999999999998e+03 1.670913000000000011e+03 1.670442999999999984e+03 1.669580999999999904e+03 1.668872000000000071e+03 1.668215999999999894e+03 1.667606999999999971e+03 1.666980000000000018e+03 1.666394000000000005e+03 1.666021999999999935e+03 1.665824000000000069e+03 1.665412000000000035e+03 1.664255000000000109e+03 1.663050999999999931e+03 1.662259000000000015e+03 1.661539999999999964e+03 1.660782999999999902e+03 1.660029999999999973e+03 1.659365999999999985e+03 1.658912000000000035e+03 1.658501999999999953e+03 1.657928000000000111e+03 1.657230000000000018e+03 1.656747000000000071e+03 1.656157999999999902e+03 1.655476000000000113e+03 1.654770999999999958e+03 1.654065000000000055e+03 1.653549999999999955e+03 1.652989000000000033e+03 1.653069999999999936e+03 1.653511999999999944e+03 1.654308999999999969e+03 1.655069999999999936e+03 1.655766000000000076e+03 1.656442000000000007e+03
1.712298000000000002e+03 1.712515000000000100e+03 1.712087999999999965e+03 1.711625999999999976e+03 1.711163999999999987e+03 1.710664999999999964e+03 1.710086000000000013e+03 1.709553000000000111e+03 1.709127999999999929e+03 1.708753999999999905e+03 1.708008000000000038e+03 1.707058999999999969e+03 1.706299999999999955e+03 1.705535000000000082e+03 1.704756000000000085e+03 1.703906999999999925e+03 1.703055000000000064e+03 1.702203999999999951e+03 1.701911000000000058e+03 1.701213999999999942e+03 1.700442999999999984e+03 1.699734999999999900e+03 1.699038000000000011e+03 1.698326999999999998e+03 1.697624000000000024e+03 1.696906999999999925e+03 1.696393000000000029e+03 1.695502999999999929e+03 1.694696999999999889e+03 1.693876999999999953e+03 1.692689000000000078e+03 1.691826000000000022e+03 1.691040999999999940e+03 1.690227000000000089e+03 1.689483999999999924e+03 1.688787000000000035e+03 1.688076999999999998e+03 1.687292999999999893e+03 1.686517000000000053e+03 1.685915999999999940e+03 1.685477000000000089e+03 1.684790999999999940e+03 1.684037000000000035e+03 1.683125999999999976e+03 1.682170000000000073e+03 1.681175999999999931e+03 1.680750999999999976e+03 1.680060999999999922e+03 1.679502999999999929e+03 1.678306000000000040e+03 1.677336000000000013e+03 1.676990999999999985e+03 1.676069999999999936e+03 1.675519999999999982e+03 1.674760999999999967e+03 1.673858999999999924e+03 1.673176999999999907e+03 1.672510999999999967e+03 1.671845000000000027e+03 1.671178000000000111e+03 1.670542999999999893e+03 1.670017000000000053e+03 1.669083000000000084e+03 1.668630000000000109e+03 1.667973999999999933e+03 1.667220000000000027e+03 1.666601000000000113e+03 1.665982999999999947e+03 1.665787000000000035e+03 1.665262999999999920e+03 1.664471000000000004e+03 1.663554000000000087e+03 1.662645999999999958e+03 1.661913999999999987e+03 1.661194999999999936e+03 1.660450000000000045e+03 1.659723999999999933e+03 1.659005000000000109e+03 1.658864000000000033e+03 1.658273999999999887e+03 1.657574000000000069e+03 1.656921000000000049e+03 1.656444999999999936e+03 1.655818999999999960e+03 1.655176999999999907e+03 1.654471999999999980e+03 1.653766000000000076e+03 1.653060999999999922e+03 1.652708000000000084e+03 1.652682000000000016e+03 1.653327999999999975e+03 1.654109999999999900e+03 1.654936999999999898e+03 1.655835000000000036e+03 1.656503999999999905e+03
1.711792999999999893e+03 1.712001999999999953e+03 1.711443999999999960e+03 1.710981999999999971e+03 1.710614000000000033e+03 1.710307000000000016e+03 1.709875000000000000e+03 1.709355999999999995e+03 1.708971000000000004e+03 1.708480999999999995e+03 1.707787000000000035e+03 1.706891000000000076e+03 1.706241999999999962e+03 1.705422000000000025e+03 1.704576999999999998e+03 1.703752999999999929e+03 1.702925999999999931e+03 1.702084000000000060e+03 1.701806000000000040e+03 1.701380000000000109e+03 1.700500999999999976e+03 1.699621000000000095e+03 1.698804000000000087e+03 1.698145999999999958e+03 1.697626999999999953e+03 1.697051999999999907e+03 1.696040999999999940e+03 1.695522999999999911e+03 1.694631000000000085e+03 1.693641000000000076e+03 1.692582000000000107e+03 1.691701999999999998e+03 1.690903999999999996e+03 1.690142000000000053e+03 1.689398999999999887e+03 1.688654999999999973e+03 1.687912000000000035e+03 1.687154999999999973e+03 1.686383000000000038e+03 1.685743999999999915e+03 1.685166999999999916e+03 1.684480000000000018e+03 1.683794000000000096e+03 1.682941000000000031e+03 1.681979000000000042e+03 1.681089999999999918e+03 1.680469000000000051e+03 1.680121000000000095e+03 1.679692000000000007e+03 1.678807999999999993e+03 1.678454999999999927e+03 1.677171000000000049e+03 1.676508000000000038e+03 1.675567999999999984e+03 1.674566000000000031e+03 1.673723999999999933e+03 1.673082000000000107e+03 1.672387999999999920e+03 1.671696999999999889e+03 1.671015000000000100e+03 1.670301999999999907e+03 1.669615000000000009e+03 1.669044000000000096e+03 1.668363000000000056e+03 1.667556000000000040e+03 1.666849999999999909e+03 1.666230999999999995e+03 1.665853000000000065e+03 1.665522999999999911e+03 1.664824000000000069e+03 1.663814000000000078e+03 1.663128999999999905e+03 1.662364000000000033e+03 1.661758000000000038e+03 1.661018000000000029e+03 1.660161000000000058e+03 1.659433999999999969e+03 1.658887999999999920e+03 1.658518000000000029e+03 1.657954999999999927e+03 1.657233999999999924e+03 1.656566000000000031e+03 1.655939000000000078e+03 1.655313000000000102e+03 1.654686999999999898e+03 1.654068999999999960e+03 1.653452999999999975e+03 1.652756000000000085e+03 1.652344000000000051e+03 1.652380000000000109e+03 1.653143000000000029e+03 1.653907999999999902e+03 1.654749000000000024e+03 1.655646999999999935e+03 1.656096999999999980e+03
1.711326999999999998e+03 1.711234999999999900e+03 1.711003999999999905e+03 1.710707000000000107e+03 1.710397999999999911e+03 1.710076999999999998e+03 1.709642000000000053e+03 1.709131000000000085e+03 1.708711999999999989e+03 1.708380000000000109e+03 1.707648999999999887e+03 1.706749000000000024e+03 1.706085000000000036e+03 1.705202999999999975e+03 1.704378999999999905e+03 1.703555000000000064e+03 1.702771999999999935e+03 1.702019000000000005e+03 1.701647999999999911e+03 1.701401000000000067e+03 1.700867999999999938e+03 1.699928000000000111e+03 1.699119999999999891e+03 1.698196999999999889e+03 1.697311999999999898e+03 1.696584000000000060e+03 1.695846000000000004e+03 1.695108999999999924e+03 1.694176999999999907e+03 1.693192000000000007e+03 1.692359999999999900e+03 1.691582000000000107e+03 1.690798999999999978e+03 1.690056000000000040e+03 1.689308999999999969e+03 1.688549999999999955e+03 1.687789999999999964e+03 1.687025000000000091e+03 1.686250000000000000e+03 1.685544000000000096e+03 1.684856999999999971e+03 1.684181000000000040e+03 1.683521999999999935e+03 1.682881000000000085e+03 1.682042999999999893e+03 1.681070999999999913e+03 1.680096999999999980e+03 1.679914999999999964e+03 1.679753999999999905e+03 1.679496000000000095e+03 1.678759999999999991e+03 1.677586999999999989e+03 1.676634999999999991e+03 1.675532999999999902e+03 1.674432000000000016e+03 1.673604000000000042e+03 1.672990999999999985e+03 1.672297000000000025e+03 1.671567000000000007e+03 1.670862000000000080e+03 1.670147999999999911e+03 1.669509999999999991e+03 1.668856999999999971e+03 1.668137999999999920e+03 1.667340999999999894e+03 1.666654999999999973e+03 1.666287000000000035e+03 1.665890000000000100e+03 1.665028999999999996e+03 1.664144999999999982e+03 1.663459000000000060e+03 1.662773999999999887e+03 1.662083000000000084e+03 1.661397999999999911e+03 1.660881000000000085e+03 1.659980000000000018e+03 1.659247000000000071e+03 1.658980000000000018e+03 1.658328999999999951e+03 1.657630000000000109e+03 1.656949000000000069e+03 1.656311999999999898e+03 1.655601000000000113e+03 1.654891000000000076e+03 1.654182000000000016e+03 1.653556000000000040e+03 1.652933999999999969e+03 1.652318999999999960e+03 1.651823000000000093e+03 1.652386999999999944e+03 1.653053000000000111e+03 1.653721999999999980e+03 1.654544000000000096e+03 1.655467000000000098e+03 1.655816000000000031e+03
1.710834000000000060e+03 1.710847999999999956e+03 1.710800999999999931e+03 1.710490000000000009e+03 1.710169000000000096e+03 1.709847999999999956e+03 1.709410000000000082e+03 1.708913000000000011e+03 1.708366999999999962e+03 1.707837999999999965e+03 1.707276000000000067e+03 1.706681000000000040e+03 1.705859999999999900e+03 1.705019999999999982e+03 1.704234999999999900e+03 1.703446999999999889e+03 1.702659000000000106e+03 1.701872000000000071e+03 1.701555000000000064e+03 1.701082000000000107e+03 1.700507000000000062e+03 1.699925999999999931e+03 1.699099999999999909e+03 1.698068999999999960e+03 1.697284000000000106e+03 1.696362000000000080e+03 1.695439000000000078e+03 1.694616999999999962e+03 1.693750000000000000e+03 1.692987000000000080e+03 1.692222999999999956e+03 1.691459000000000060e+03 1.690699000000000069e+03 1.689940000000000055e+03 1.689180000000000064e+03 1.688421000000000049e+03 1.687661000000000058e+03 1.686894000000000005e+03 1.686118999999999915e+03 1.685346000000000004e+03 1.684651000000000067e+03 1.684022999999999911e+03 1.683411000000000058e+03 1.682852000000000089e+03 1.682142000000000053e+03 1.681049999999999955e+03 1.679926999999999907e+03 1.679386999999999944e+03 1.679083000000000084e+03 1.678791999999999916e+03 1.678253999999999905e+03 1.677474999999999909e+03 1.676299999999999955e+03 1.675377999999999929e+03 1.674320999999999913e+03 1.673823000000000093e+03 1.673060999999999922e+03 1.672115000000000009e+03 1.671422000000000025e+03 1.670712999999999965e+03 1.669973999999999933e+03 1.669227000000000089e+03 1.668721999999999980e+03 1.667952999999999975e+03 1.667138999999999896e+03 1.666574000000000069e+03 1.665980999999999995e+03 1.665326000000000022e+03 1.664553000000000111e+03 1.663858999999999924e+03 1.663135999999999967e+03 1.662420000000000073e+03 1.661734999999999900e+03 1.661037000000000035e+03 1.660268000000000029e+03 1.659528999999999996e+03 1.659111000000000104e+03 1.658849999999999909e+03 1.658077999999999975e+03 1.657364000000000033e+03 1.656648999999999887e+03 1.655977000000000089e+03 1.655278000000000020e+03 1.654578999999999951e+03 1.653880000000000109e+03 1.653190000000000055e+03 1.652500000000000000e+03 1.651944999999999936e+03 1.651516000000000076e+03 1.652145999999999958e+03 1.652926999999999907e+03 1.653708000000000084e+03 1.654513999999999896e+03 1.655201999999999998e+03 1.655621000000000095e+03
1.710395999999999958e+03 1.710311999999999898e+03 1.710256000000000085e+03 1.710146999999999935e+03 1.709923000000000002e+03 1.709617999999999938e+03 1.709190000000000055e+03 1.708698000000000093e+03 1.708125999999999976e+03 1.707555000000000064e+03 1.706998000000000047e+03 1.706237000000000080e+03 1.705586000000000013e+03 1.704983999999999924e+03 1.704112000000000080e+03 1.703317999999999984e+03 1.702522999999999911e+03 1.701757000000000062e+03 1.701467000000000098e+03 1.701009000000000015e+03 1.700393000000000029e+03 1.699708000000000084e+03 1.698817000000000007e+03 1.698084000000000060e+03 1.697261999999999944e+03 1.696338999999999942e+03 1.695415999999999940e+03 1.694496000000000095e+03 1.693656999999999925e+03 1.692894999999999982e+03 1.692135999999999967e+03 1.691375999999999976e+03 1.690795000000000073e+03 1.689941000000000031e+03 1.689086999999999989e+03 1.688291999999999916e+03 1.687531999999999925e+03 1.686763999999999896e+03 1.686012999999999920e+03 1.685237000000000080e+03 1.684392000000000053e+03 1.683760999999999967e+03 1.683292999999999893e+03 1.682852000000000089e+03 1.682056000000000040e+03 1.680948000000000093e+03 1.679825000000000045e+03 1.679026000000000067e+03 1.678729000000000042e+03 1.678310999999999922e+03 1.677332000000000107e+03 1.676545000000000073e+03 1.675510999999999967e+03 1.674835000000000036e+03 1.674209000000000060e+03 1.673826000000000022e+03 1.673191000000000031e+03 1.672094000000000051e+03 1.671178000000000111e+03 1.670628999999999905e+03 1.670205999999999904e+03 1.668990999999999985e+03 1.668271999999999935e+03 1.667585000000000036e+03 1.666936999999999898e+03 1.666221000000000004e+03 1.665503999999999905e+03 1.664838999999999942e+03 1.664321999999999889e+03 1.663659000000000106e+03 1.662936999999999898e+03 1.662213999999999942e+03 1.661491999999999962e+03 1.660804000000000087e+03 1.659875999999999976e+03 1.659347999999999956e+03 1.659038000000000011e+03 1.658585000000000036e+03 1.657759999999999991e+03 1.657003999999999905e+03 1.656267000000000053e+03 1.656096999999999980e+03 1.654971000000000004e+03 1.654280999999999949e+03 1.653590999999999894e+03 1.652903000000000020e+03 1.652270999999999958e+03 1.651624000000000024e+03 1.651381000000000085e+03 1.651900000000000091e+03 1.652813000000000102e+03 1.653726000000000113e+03 1.654277000000000044e+03 1.654811999999999898e+03 1.655287000000000035e+03
1.709981999999999971e+03 1.709932999999999993e+03 1.709986000000000104e+03 1.710035000000000082e+03 1.709627999999999929e+03 1.709436999999999898e+03 1.709105000000000018e+03 1.708545000000000073e+03 1.707936999999999898e+03 1.707336000000000013e+03 1.706707000000000107e+03 1.706064000000000078e+03 1.705442999999999984e+03 1.704931000000000040e+03 1.704138999999999896e+03 1.703218000000000075e+03 1.702429000000000087e+03 1.701818999999999960e+03 1.701395999999999958e+03 1.700843000000000075e+03 1.700146999999999935e+03 1.699461000000000013e+03 1.698799999999999955e+03 1.698159000000000106e+03 1.697239000000000033e+03 1.696317000000000007e+03 1.695396999999999935e+03 1.694478000000000065e+03 1.693606999999999971e+03 1.692821999999999889e+03 1.692055000000000064e+03 1.691295000000000073e+03 1.690744999999999891e+03 1.690135999999999967e+03 1.689281999999999925e+03 1.688426999999999907e+03 1.687573000000000093e+03 1.686653999999999996e+03 1.685907999999999902e+03 1.685128999999999905e+03 1.684284000000000106e+03 1.683499000000000024e+03 1.683153000000000020e+03 1.682852000000000089e+03 1.681915999999999940e+03 1.680811999999999898e+03 1.679707000000000107e+03 1.678665999999999940e+03 1.678214999999999918e+03 1.677585000000000036e+03 1.676580999999999904e+03 1.675788999999999987e+03 1.675246000000000095e+03 1.674855000000000018e+03 1.674499000000000024e+03 1.673988000000000056e+03 1.673118999999999915e+03 1.672055000000000064e+03 1.670941000000000031e+03 1.670634999999999991e+03 1.670429000000000087e+03 1.669509999999999991e+03 1.668232999999999947e+03 1.667444999999999936e+03 1.666757000000000062e+03 1.666034000000000106e+03 1.665292999999999893e+03 1.664768000000000029e+03 1.664113000000000056e+03 1.663446999999999889e+03 1.662746000000000095e+03 1.662020999999999958e+03 1.661278000000000020e+03 1.660500999999999976e+03 1.659574000000000069e+03 1.659238000000000056e+03 1.658798000000000002e+03 1.658215999999999894e+03 1.657517000000000053e+03 1.656646999999999935e+03 1.656087999999999965e+03 1.656012999999999920e+03 1.655103000000000065e+03 1.653990999999999985e+03 1.653327999999999975e+03 1.652695999999999913e+03 1.652064000000000078e+03 1.651415999999999940e+03 1.650979000000000042e+03 1.651651000000000067e+03 1.652342000000000098e+03 1.653038999999999987e+03 1.653916999999999916e+03 1.654790999999999940e+03 1.655211999999999989e+03
1.709550999999999931e+03 1.709553000000000111e+03 1.709632000000000062e+03 1.709659000000000106e+03 1.709318999999999960e+03 1.709457000000000107e+03 1.709163999999999987e+03 1.708546000000000049e+03 1.707929000000000087e+03 1.707311999999999898e+03 1.706605000000000018e+03 1.705897999999999911e+03 1.705317999999999984e+03 1.704806000000000040e+03 1.704214999999999918e+03 1.703270999999999958e+03 1.702298999999999978e+03 1.701635999999999967e+03 1.701407999999999902e+03 1.700733999999999924e+03 1.699994999999999891e+03 1.699364000000000033e+03 1.698843000000000075e+03 1.698138999999999896e+03 1.697219000000000051e+03 1.696298999999999978e+03 1.695380000000000109e+03 1.694460000000000036e+03 1.693557000000000016e+03 1.692771999999999935e+03 1.691988000000000056e+03 1.691213999999999942e+03 1.690622000000000071e+03 1.690173000000000002e+03 1.689476000000000113e+03 1.688622000000000071e+03 1.687631000000000085e+03 1.686588999999999942e+03 1.685775000000000091e+03 1.684998000000000047e+03 1.684215999999999894e+03 1.683498000000000047e+03 1.683029999999999973e+03 1.682829999999999927e+03 1.681786000000000058e+03 1.680685999999999922e+03 1.679586000000000013e+03 1.678768000000000029e+03 1.678201000000000022e+03 1.677133000000000038e+03 1.676355999999999995e+03 1.675592000000000098e+03 1.674932999999999993e+03 1.674808999999999969e+03 1.674125999999999976e+03 1.673378999999999905e+03 1.672853000000000065e+03 1.671880000000000109e+03 1.670769999999999982e+03 1.670096999999999980e+03 1.670134000000000015e+03 1.669712999999999965e+03 1.668490000000000009e+03 1.667291999999999916e+03 1.666538999999999987e+03 1.665798000000000002e+03 1.665335000000000036e+03 1.664703999999999951e+03 1.663992999999999938e+03 1.663307000000000016e+03 1.662479000000000042e+03 1.661696999999999889e+03 1.660914999999999964e+03 1.660098999999999933e+03 1.659299999999999955e+03 1.659017000000000053e+03 1.658541999999999916e+03 1.657934999999999945e+03 1.657314000000000078e+03 1.656605000000000018e+03 1.655845000000000027e+03 1.655659000000000106e+03 1.655172000000000025e+03 1.654037000000000035e+03 1.653278999999999996e+03 1.652519999999999982e+03 1.651856999999999971e+03 1.651207000000000107e+03 1.650829999999999927e+03 1.651480999999999995e+03 1.652227000000000089e+03 1.652932999999999993e+03 1.653673000000000002e+03 1.654464999999999918e+03 1.655104000000000042e+03
1.709077999999999975e+03 1.709130000000000109e+03 1.709241999999999962e+03 1.709209000000000060e+03 1.708960000000000036e+03 1.709083000000000084e+03 1.708871000000000095e+03 1.708344000000000051e+03 1.707693999999999960e+03 1.707042999999999893e+03 1.706398999999999887e+03 1.705731999999999971e+03 1.705192999999999984e+03 1.704674999999999955e+03 1.704002999999999929e+03 1.703248000000000047e+03 1.702333000000000084e+03 1.701460000000000036e+03 1.701267000000000053e+03 1.700721000000000004e+03 1.699932999999999993e+03 1.699173999999999978e+03 1.698626999999999953e+03 1.697968000000000075e+03 1.697167999999999893e+03 1.696280999999999949e+03 1.695362000000000080e+03 1.694442000000000007e+03 1.693521999999999935e+03 1.692721999999999980e+03 1.691936999999999898e+03 1.691153000000000020e+03 1.690500999999999976e+03 1.690049999999999955e+03 1.689601000000000113e+03 1.688720000000000027e+03 1.687657999999999902e+03 1.686596000000000004e+03 1.685613000000000056e+03 1.684857999999999947e+03 1.684182999999999993e+03 1.683558999999999969e+03 1.682847999999999956e+03 1.682534000000000106e+03 1.681737000000000080e+03 1.680351000000000113e+03 1.679741999999999962e+03 1.680096999999999980e+03 1.678855999999999995e+03 1.677013999999999896e+03 1.676233999999999924e+03 1.675471999999999980e+03 1.675147999999999911e+03 1.674507000000000062e+03 1.673648999999999887e+03 1.672731999999999971e+03 1.672288999999999987e+03 1.671556000000000040e+03 1.670861000000000104e+03 1.670003999999999905e+03 1.669974999999999909e+03 1.669288999999999987e+03 1.667984999999999900e+03 1.667130000000000109e+03 1.666303000000000111e+03 1.665763999999999896e+03 1.665299999999999955e+03 1.664588999999999942e+03 1.663877999999999929e+03 1.663153999999999996e+03 1.662261999999999944e+03 1.661480000000000018e+03 1.660645999999999958e+03 1.659921000000000049e+03 1.659348999999999933e+03 1.658941000000000031e+03 1.658363000000000056e+03 1.657671000000000049e+03 1.657076000000000022e+03 1.656566000000000031e+03 1.655980000000000018e+03 1.655352000000000089e+03 1.654691000000000031e+03 1.654074000000000069e+03 1.653143000000000029e+03 1.652375000000000000e+03 1.651587999999999965e+03 1.650969000000000051e+03 1.650580999999999904e+03 1.651390000000000100e+03 1.652117999999999938e+03 1.652843000000000075e+03 1.653594000000000051e+03 1.654327999999999975e+03 1.654925999999999931e+03
1.708616999999999962e+03 1.708710000000000036e+03 1.708731999999999971e+03 1.708648999999999887e+03 1.708601000000000113e+03 1.708512999999999920e+03 1.708234999999999900e+03 1.707721000000000004e+03 1.707205999999999904e+03 1.706692000000000007e+03 1.706103000000000065e+03 1.705583000000000084e+03 1.704968000000000075e+03 1.704295000000000073e+03 1.703623000000000047e+03 1.702950000000000045e+03 1.702156999999999925e+03 1.701429000000000087e+03 1.701166999999999916e+03 1.700670000000000073e+03 1.699857999999999947e+03 1.699020999999999958e+03 1.698320999999999913e+03 1.697661000000000058e+03 1.696861000000000104e+03 1.696059999999999945e+03 1.695259999999999991e+03 1.694423999999999978e+03 1.693503999999999905e+03 1.692672000000000025e+03 1.691875999999999976e+03 1.691048000000000002e+03 1.690395999999999958e+03 1.689943999999999960e+03 1.689444999999999936e+03 1.689141000000000076e+03 1.688188000000000102e+03 1.686848999999999933e+03 1.685518000000000029e+03 1.685093000000000075e+03 1.684218000000000075e+03 1.683442999999999984e+03 1.682736000000000104e+03 1.682191000000000031e+03 1.681795000000000073e+03 1.680307000000000016e+03 1.679804000000000087e+03 1.679592000000000098e+03 1.679709000000000060e+03 1.677560999999999922e+03 1.676262999999999920e+03 1.675672000000000025e+03 1.675242999999999938e+03 1.674218000000000075e+03 1.673384000000000015e+03 1.672553000000000111e+03 1.672080999999999904e+03 1.671769999999999982e+03 1.671121000000000095e+03 1.669861000000000104e+03 1.669753999999999905e+03 1.668609999999999900e+03 1.667849999999999909e+03 1.666994999999999891e+03 1.666179000000000087e+03 1.665765000000000100e+03 1.665082000000000107e+03 1.664340999999999894e+03 1.663626999999999953e+03 1.662977000000000089e+03 1.662076999999999998e+03 1.661237000000000080e+03 1.660417999999999893e+03 1.659615000000000009e+03 1.659265000000000100e+03 1.658825000000000045e+03 1.658096000000000004e+03 1.657432999999999993e+03 1.656776000000000067e+03 1.656162000000000035e+03 1.655583000000000084e+03 1.655029999999999973e+03 1.654559999999999945e+03 1.653886999999999944e+03 1.652794000000000096e+03 1.651996000000000095e+03 1.651194999999999936e+03 1.650393000000000029e+03 1.650458000000000084e+03 1.651300999999999931e+03 1.652122000000000071e+03 1.652909000000000106e+03 1.653397999999999911e+03 1.653907999999999902e+03 1.654506000000000085e+03
1.708251999999999953e+03 1.708335000000000036e+03 1.708378999999999905e+03 1.708330999999999904e+03 1.708183999999999969e+03 1.708019999999999982e+03 1.707770999999999958e+03 1.707297000000000025e+03 1.706818999999999960e+03 1.706444999999999936e+03 1.705852000000000089e+03 1.705363000000000056e+03 1.704746000000000095e+03 1.704025000000000091e+03 1.703304000000000087e+03 1.702583000000000084e+03 1.701891000000000076e+03 1.701378999999999905e+03 1.701209000000000060e+03 1.700539999999999964e+03 1.699730000000000018e+03 1.698920000000000073e+03 1.698108999999999924e+03 1.697354000000000042e+03 1.696554000000000087e+03 1.695752999999999929e+03 1.694960000000000036e+03 1.694188000000000102e+03 1.693410000000000082e+03 1.692590999999999894e+03 1.691760999999999967e+03 1.690932000000000016e+03 1.690262999999999920e+03 1.689760999999999967e+03 1.689259000000000015e+03 1.688931000000000040e+03 1.688752999999999929e+03 1.688092000000000098e+03 1.686846999999999980e+03 1.685856999999999971e+03 1.684241999999999962e+03 1.683323000000000093e+03 1.682623000000000047e+03 1.682078999999999951e+03 1.681523999999999887e+03 1.680679000000000087e+03 1.679657999999999902e+03 1.678748000000000047e+03 1.679328999999999951e+03 1.678365000000000009e+03 1.676116999999999962e+03 1.675798000000000002e+03 1.675407999999999902e+03 1.673955999999999904e+03 1.673243999999999915e+03 1.672464999999999918e+03 1.672109999999999900e+03 1.671806000000000040e+03 1.671118999999999915e+03 1.669718000000000075e+03 1.669086000000000013e+03 1.668467000000000098e+03 1.667738000000000056e+03 1.666883000000000038e+03 1.666171000000000049e+03 1.665560999999999922e+03 1.664652000000000044e+03 1.664007000000000062e+03 1.663394999999999982e+03 1.662714999999999918e+03 1.661933999999999969e+03 1.661159000000000106e+03 1.660142000000000053e+03 1.659601000000000113e+03 1.659176999999999907e+03 1.658462999999999965e+03 1.657817000000000007e+03 1.657172000000000025e+03 1.656460000000000036e+03 1.655766000000000076e+03 1.654936999999999898e+03 1.654232999999999947e+03 1.653835000000000036e+03 1.653299999999999955e+03 1.652332000000000107e+03 1.651526000000000067e+03 1.650744999999999891e+03 1.649963999999999942e+03 1.650324000000000069e+03 1.651077999999999975e+03 1.651806000000000040e+03 1.652526000000000067e+03 1.653128999999999905e+03 1.653471999999999980e+03 1.654114000000000033e+03
1.707866999999999962e+03 1.707958000000000084e+03 1.708000000000000000e+03 1.708030999999999949e+03 1.707827999999999975e+03 1.707664999999999964e+03 1.707446999999999889e+03 1.707049999999999955e+03 1.706731999999999971e+03 1.706297000000000025e+03 1.705682000000000016e+03 1.705156999999999925e+03 1.704586999999999989e+03 1.703865999999999985e+03 1.703144999999999982e+03 1.702452999999999975e+03 1.701750000000000000e+03 1.701143000000000029e+03 1.701021999999999935e+03 1.700369999999999891e+03 1.699583000000000084e+03 1.698797000000000025e+03 1.698010999999999967e+03 1.697298000000000002e+03 1.696520999999999958e+03 1.695732999999999947e+03 1.694945999999999913e+03 1.694157999999999902e+03 1.693371000000000095e+03 1.692526000000000067e+03 1.691669000000000096e+03 1.690875999999999976e+03 1.690145999999999958e+03 1.689575000000000045e+03 1.689074000000000069e+03 1.688721000000000004e+03 1.688542999999999893e+03 1.688316000000000031e+03 1.687192000000000007e+03 1.686115999999999985e+03 1.684403999999999996e+03 1.683346999999999980e+03 1.682429000000000087e+03 1.681756000000000085e+03 1.681178000000000111e+03 1.680307999999999993e+03 1.679403000000000020e+03 1.678589999999999918e+03 1.678762999999999920e+03 1.677300999999999931e+03 1.676290999999999940e+03 1.676849999999999909e+03 1.675507000000000062e+03 1.674352000000000089e+03 1.673117999999999938e+03 1.672391000000000076e+03 1.672059999999999945e+03 1.671196999999999889e+03 1.670340999999999894e+03 1.669592000000000098e+03 1.668942000000000007e+03 1.668323000000000093e+03 1.667598999999999933e+03 1.666843000000000075e+03 1.666038000000000011e+03 1.665249000000000024e+03 1.664455999999999904e+03 1.663750000000000000e+03 1.663169000000000096e+03 1.662387999999999920e+03 1.661734999999999900e+03 1.661042999999999893e+03 1.659974999999999909e+03 1.659482999999999947e+03 1.659284000000000106e+03 1.658298000000000002e+03 1.657570999999999913e+03 1.656913999999999987e+03 1.656184999999999945e+03 1.655329999999999927e+03 1.654513999999999896e+03 1.653896999999999935e+03 1.653423000000000002e+03 1.652673000000000002e+03 1.651882000000000062e+03 1.651009999999999991e+03 1.650233999999999924e+03 1.649820999999999913e+03 1.649887999999999920e+03 1.650708000000000084e+03 1.651519000000000005e+03 1.652261999999999944e+03 1.652828999999999951e+03 1.653230000000000018e+03 1.653818999999999960e+03
1.707450000000000045e+03 1.707558999999999969e+03 1.707429000000000087e+03 1.707451999999999998e+03 1.707487000000000080e+03 1.707395999999999958e+03 1.707144000000000005e+03 1.706853000000000065e+03 1.706622000000000071e+03 1.706335000000000036e+03 1.705441000000000031e+03 1.704960000000000036e+03 1.704428000000000111e+03 1.703707000000000107e+03 1.703096000000000004e+03 1.702385999999999967e+03 1.701645999999999958e+03 1.701105000000000018e+03 1.700923000000000002e+03 1.700211999999999989e+03 1.699480999999999995e+03 1.698728000000000065e+03 1.697941000000000031e+03 1.697222999999999956e+03 1.696479000000000042e+03 1.695693999999999960e+03 1.694905999999999949e+03 1.694118999999999915e+03 1.693330999999999904e+03 1.692486000000000104e+03 1.691603000000000065e+03 1.690864000000000033e+03 1.690135999999999967e+03 1.689407999999999902e+03 1.688887999999999920e+03 1.688510999999999967e+03 1.688334000000000060e+03 1.687468000000000075e+03 1.686260999999999967e+03 1.685220000000000027e+03 1.684195999999999913e+03 1.683114000000000033e+03 1.682325000000000045e+03 1.681535000000000082e+03 1.680857999999999947e+03 1.679991999999999962e+03 1.679090999999999894e+03 1.678442000000000007e+03 1.677945999999999913e+03 1.676967000000000098e+03 1.677304000000000087e+03 1.677665999999999940e+03 1.675540999999999940e+03 1.674385999999999967e+03 1.673022999999999911e+03 1.672314000000000078e+03 1.671645999999999958e+03 1.671137999999999920e+03 1.670549999999999955e+03 1.669645999999999958e+03 1.668833000000000084e+03 1.668178000000000111e+03 1.668270999999999958e+03 1.666582000000000107e+03 1.665819999999999936e+03 1.665038999999999987e+03 1.664257000000000062e+03 1.663537000000000035e+03 1.662884000000000015e+03 1.662233999999999924e+03 1.661584000000000060e+03 1.660682999999999993e+03 1.659842000000000098e+03 1.659384999999999991e+03 1.659069999999999936e+03 1.657968000000000075e+03 1.657314000000000078e+03 1.656748000000000047e+03 1.655941000000000031e+03 1.655105000000000018e+03 1.654431000000000040e+03 1.653740999999999985e+03 1.652968000000000075e+03 1.652134999999999991e+03 1.651300999999999931e+03 1.650507000000000062e+03 1.649906999999999925e+03 1.649474999999999909e+03 1.649521999999999935e+03 1.650367999999999938e+03 1.651172000000000025e+03 1.651807000000000016e+03 1.652390000000000100e+03 1.652938000000000102e+03 1.653478000000000065e+03
1.706967000000000098e+03 1.707097999999999956e+03 1.707032999999999902e+03 1.706996000000000095e+03 1.707078999999999951e+03 1.706858999999999924e+03 1.706675999999999931e+03 1.706428000000000111e+03 1.706191000000000031e+03 1.705865000000000009e+03 1.705291999999999916e+03 1.704809999999999945e+03 1.704321999999999889e+03 1.703739000000000033e+03 1.703022999999999911e+03 1.702281999999999925e+03 1.701541999999999916e+03 1.701140000000000100e+03 1.700730000000000018e+03 1.700029999999999973e+03 1.699315000000000055e+03 1.698599999999999909e+03 1.697851000000000113e+03 1.697115999999999985e+03 1.696372000000000071e+03 1.695627999999999929e+03 1.694866999999999962e+03 1.694078999999999951e+03 1.693291999999999916e+03 1.692446999999999889e+03 1.691523999999999887e+03 1.690842000000000098e+03 1.690125999999999976e+03 1.689397999999999911e+03 1.688701999999999998e+03 1.688300999999999931e+03 1.687738000000000056e+03 1.686730999999999995e+03 1.685723999999999933e+03 1.684993999999999915e+03 1.684032999999999902e+03 1.683026000000000067e+03 1.682242999999999938e+03 1.681460000000000036e+03 1.680673999999999978e+03 1.679809999999999945e+03 1.678978000000000065e+03 1.678441000000000031e+03 1.678095000000000027e+03 1.676877999999999929e+03 1.677359999999999900e+03 1.677327999999999975e+03 1.675575000000000045e+03 1.673791999999999916e+03 1.672928000000000111e+03 1.672237000000000080e+03 1.671708000000000084e+03 1.671123000000000047e+03 1.670942000000000007e+03 1.670169000000000096e+03 1.668637999999999920e+03 1.668867999999999938e+03 1.668421000000000049e+03 1.666563000000000102e+03 1.665798999999999978e+03 1.665032999999999902e+03 1.664250999999999976e+03 1.663497000000000071e+03 1.662798000000000002e+03 1.662115999999999985e+03 1.661433999999999969e+03 1.660419000000000096e+03 1.659653000000000020e+03 1.659396999999999935e+03 1.658739000000000033e+03 1.657711000000000013e+03 1.657196999999999889e+03 1.656539999999999964e+03 1.655731999999999971e+03 1.654970000000000027e+03 1.654241999999999962e+03 1.653563000000000102e+03 1.652663000000000011e+03 1.651838999999999942e+03 1.651016000000000076e+03 1.650232999999999947e+03 1.649542999999999893e+03 1.648951999999999998e+03 1.649368999999999915e+03 1.650008000000000038e+03 1.650717000000000098e+03 1.651403999999999996e+03 1.651959000000000060e+03 1.652575000000000045e+03 1.653229000000000042e+03
1.706675999999999931e+03 1.706542999999999893e+03 1.706603000000000065e+03 1.706550999999999931e+03 1.706481999999999971e+03 1.706401000000000067e+03 1.706234999999999900e+03 1.706096000000000004e+03 1.705794000000000096e+03 1.705451000000000022e+03 1.705097999999999956e+03 1.704836000000000013e+03 1.704329999999999927e+03 1.703752999999999929e+03 1.703099999999999909e+03 1.702382000000000062e+03 1.701565000000000055e+03 1.700817999999999984e+03 1.700532999999999902e+03 1.699977000000000089e+03 1.699229000000000042e+03 1.698479000000000042e+03 1.697720000000000027e+03 1.696980999999999995e+03 1.696246000000000095e+03 1.695511999999999944e+03 1.694776000000000067e+03 1.694031999999999925e+03 1.693251999999999953e+03 1.692405999999999949e+03 1.691480000000000018e+03 1.690759999999999991e+03 1.690048999999999978e+03 1.689351000000000113e+03 1.688652000000000044e+03 1.688008000000000038e+03 1.687076000000000022e+03 1.686227000000000089e+03 1.685498000000000047e+03 1.684768000000000029e+03 1.683846000000000004e+03 1.683307999999999993e+03 1.682643000000000029e+03 1.681813000000000102e+03 1.680772999999999911e+03 1.679847999999999956e+03 1.678961999999999989e+03 1.678173999999999978e+03 1.677679000000000087e+03 1.676625999999999976e+03 1.677056000000000040e+03 1.676737000000000080e+03 1.675173999999999978e+03 1.673540999999999940e+03 1.672858999999999924e+03 1.672192999999999984e+03 1.671681000000000040e+03 1.671167999999999893e+03 1.670840999999999894e+03 1.670574000000000069e+03 1.669060999999999922e+03 1.667980000000000018e+03 1.667950000000000045e+03 1.666539999999999964e+03 1.665777000000000044e+03 1.665012999999999920e+03 1.664243999999999915e+03 1.663484999999999900e+03 1.662710000000000036e+03 1.662011999999999944e+03 1.661303000000000111e+03 1.660452999999999975e+03 1.659662000000000035e+03 1.659375000000000000e+03 1.658644000000000005e+03 1.657692000000000007e+03 1.657128999999999905e+03 1.656343000000000075e+03 1.655593000000000075e+03 1.654843000000000075e+03 1.654123000000000047e+03 1.653704999999999927e+03 1.652604000000000042e+03 1.651564000000000078e+03 1.650792999999999893e+03 1.650028000000000020e+03 1.649265000000000100e+03 1.648644999999999982e+03 1.649036000000000058e+03 1.649848999999999933e+03 1.650523999999999887e+03 1.651009999999999991e+03 1.651666999999999916e+03 1.652347999999999956e+03 1.653028999999999996e+03
1.705898999999999887e+03 1.706058999999999969e+03 1.706181000000000040e+03 1.706137999999999920e+03 1.706223999999999933e+03 1.706134000000000015e+03 1.705989000000000033e+03 1.705894000000000005e+03 1.705690000000000055e+03 1.705236000000000104e+03 1.704852000000000089e+03 1.704588999999999942e+03 1.704146999999999935e+03 1.703538000000000011e+03 1.702936999999999898e+03 1.702267000000000053e+03 1.701480999999999995e+03 1.700753999999999905e+03 1.700396999999999935e+03 1.699832000000000107e+03 1.699106999999999971e+03 1.698347999999999956e+03 1.697589999999999918e+03 1.696846000000000004e+03 1.696111000000000104e+03 1.695376999999999953e+03 1.694642000000000053e+03 1.693906999999999925e+03 1.693179000000000087e+03 1.692397999999999911e+03 1.691491999999999962e+03 1.690809999999999945e+03 1.690153999999999996e+03 1.689442000000000007e+03 1.688730999999999995e+03 1.687820999999999913e+03 1.686942000000000007e+03 1.686053000000000111e+03 1.685289999999999964e+03 1.684541999999999916e+03 1.683826999999999998e+03 1.683406999999999925e+03 1.682891000000000076e+03 1.682017000000000053e+03 1.680824000000000069e+03 1.679794000000000096e+03 1.678884000000000015e+03 1.678045000000000073e+03 1.677179000000000087e+03 1.676461999999999989e+03 1.676355000000000018e+03 1.675002999999999929e+03 1.674268000000000029e+03 1.673501999999999953e+03 1.672815000000000055e+03 1.672104000000000042e+03 1.671525000000000091e+03 1.670974999999999909e+03 1.670371000000000095e+03 1.670413000000000011e+03 1.668906999999999925e+03 1.668078999999999951e+03 1.667212999999999965e+03 1.666540999999999940e+03 1.665777000000000044e+03 1.665011999999999944e+03 1.664247000000000071e+03 1.663472999999999956e+03 1.662678000000000111e+03 1.661903000000000020e+03 1.661155999999999949e+03 1.659997000000000071e+03 1.659596000000000004e+03 1.659243999999999915e+03 1.658656999999999925e+03 1.657823000000000093e+03 1.656990999999999985e+03 1.656257000000000062e+03 1.655521999999999935e+03 1.654633000000000038e+03 1.653752999999999929e+03 1.653472999999999956e+03 1.652784000000000106e+03 1.651835000000000036e+03 1.650903999999999996e+03 1.649998000000000047e+03 1.649013999999999896e+03 1.648573000000000093e+03 1.648701000000000022e+03 1.649384999999999991e+03 1.649964999999999918e+03 1.650559999999999945e+03 1.651318999999999960e+03 1.652000000000000000e+03 1.652680000000000064e+03
1.705421000000000049e+03 1.705574000000000069e+03 1.705653999999999996e+03 1.705769999999999982e+03 1.705808999999999969e+03 1.705743999999999915e+03 1.705695999999999913e+03 1.705578999999999951e+03 1.705395999999999958e+03 1.704989000000000033e+03 1.704570999999999913e+03 1.704190000000000055e+03 1.703811999999999898e+03 1.703344000000000051e+03 1.702798000000000002e+03 1.702028000000000020e+03 1.701128999999999905e+03 1.700593000000000075e+03 1.700231999999999971e+03 1.699604000000000042e+03 1.698855999999999995e+03 1.698170000000000073e+03 1.697480999999999995e+03 1.696743999999999915e+03 1.696045000000000073e+03 1.695326999999999998e+03 1.694608999999999924e+03 1.693891000000000076e+03 1.693239000000000033e+03 1.692577999999999975e+03 1.691660000000000082e+03 1.690824000000000069e+03 1.690188000000000102e+03 1.689542999999999893e+03 1.688625000000000000e+03 1.687753999999999905e+03 1.686898999999999887e+03 1.686010999999999967e+03 1.685125999999999976e+03 1.684453999999999951e+03 1.683833000000000084e+03 1.683041999999999916e+03 1.682521999999999935e+03 1.681977000000000089e+03 1.680251999999999953e+03 1.679912000000000035e+03 1.678932000000000016e+03 1.678135999999999967e+03 1.677554000000000087e+03 1.676575000000000045e+03 1.676098999999999933e+03 1.675310999999999922e+03 1.674506000000000085e+03 1.673686999999999898e+03 1.672773999999999887e+03 1.672040999999999940e+03 1.671307999999999993e+03 1.670578999999999951e+03 1.670207000000000107e+03 1.669614000000000033e+03 1.668636999999999944e+03 1.667853000000000065e+03 1.667076999999999998e+03 1.666425999999999931e+03 1.665776000000000067e+03 1.665047000000000025e+03 1.664281999999999925e+03 1.663563000000000102e+03 1.662759999999999991e+03 1.661892000000000053e+03 1.661098999999999933e+03 1.659977000000000089e+03 1.659583000000000084e+03 1.659348999999999933e+03 1.658537000000000035e+03 1.657720000000000027e+03 1.656973999999999933e+03 1.656125000000000000e+03 1.655276000000000067e+03 1.654461999999999989e+03 1.653585000000000036e+03 1.653153999999999996e+03 1.652241999999999962e+03 1.651351000000000113e+03 1.650622000000000071e+03 1.650048000000000002e+03 1.648977000000000089e+03 1.648291999999999916e+03 1.648124000000000024e+03 1.648785000000000082e+03 1.649448000000000093e+03 1.650153999999999996e+03 1.651030999999999949e+03 1.651651000000000067e+03 1.652337999999999965e+03
1.704943999999999960e+03 1.705039999999999964e+03 1.705202999999999975e+03 1.705278000000000020e+03 1.705326000000000022e+03 1.705282999999999902e+03 1.705323000000000093e+03 1.705161000000000058e+03 1.704905999999999949e+03 1.704673999999999978e+03 1.704394000000000005e+03 1.704057999999999993e+03 1.703679000000000087e+03 1.703165999999999940e+03 1.702634999999999991e+03 1.701991999999999962e+03 1.701132000000000062e+03 1.700403000000000020e+03 1.700201000000000022e+03 1.699659000000000106e+03 1.698911000000000058e+03 1.698163000000000011e+03 1.697432999999999993e+03 1.696682000000000016e+03 1.695951000000000022e+03 1.695259000000000015e+03 1.694566000000000031e+03 1.693873000000000047e+03 1.693236000000000104e+03 1.692561999999999898e+03 1.691792999999999893e+03 1.690909000000000106e+03 1.690061999999999898e+03 1.689337999999999965e+03 1.688508000000000038e+03 1.687673000000000002e+03 1.686837999999999965e+03 1.685971000000000004e+03 1.685118999999999915e+03 1.684559999999999945e+03 1.683979000000000042e+03 1.683035000000000082e+03 1.682156999999999925e+03 1.681676999999999907e+03 1.680289999999999964e+03 1.680396999999999935e+03 1.679246000000000095e+03 1.677997000000000071e+03 1.677365999999999985e+03 1.676539999999999964e+03 1.676209000000000060e+03 1.675349999999999909e+03 1.674474999999999909e+03 1.673811999999999898e+03 1.672737000000000080e+03 1.671961000000000013e+03 1.671333000000000084e+03 1.670743999999999915e+03 1.670222999999999956e+03 1.669483999999999924e+03 1.668499000000000024e+03 1.667682999999999993e+03 1.666932000000000016e+03 1.666284000000000106e+03 1.665636999999999944e+03 1.664989000000000033e+03 1.664317000000000007e+03 1.663459000000000060e+03 1.662609999999999900e+03 1.661809999999999945e+03 1.660895999999999958e+03 1.660039999999999964e+03 1.659559999999999945e+03 1.659090999999999894e+03 1.658307000000000016e+03 1.657375000000000000e+03 1.656809999999999945e+03 1.656086000000000013e+03 1.655272999999999911e+03 1.654423999999999978e+03 1.653508000000000038e+03 1.652618999999999915e+03 1.651811999999999898e+03 1.651063000000000102e+03 1.650362000000000080e+03 1.649715999999999894e+03 1.648990999999999985e+03 1.648190000000000055e+03 1.647786000000000058e+03 1.648353000000000065e+03 1.649006000000000085e+03 1.649747000000000071e+03 1.650749000000000024e+03 1.651363000000000056e+03 1.651962999999999965e+03
1.704551999999999907e+03 1.704604000000000042e+03 1.704821999999999889e+03 1.704883000000000038e+03 1.704872000000000071e+03 1.704894999999999982e+03 1.704950000000000045e+03 1.704750999999999976e+03 1.704643000000000029e+03 1.704457000000000107e+03 1.704142000000000053e+03 1.703819999999999936e+03 1.703395999999999958e+03 1.702954999999999927e+03 1.702477000000000089e+03 1.701851000000000113e+03 1.701070999999999913e+03 1.700329999999999927e+03 1.700085000000000036e+03 1.699470000000000027e+03 1.698778999999999996e+03 1.698069999999999936e+03 1.697333000000000084e+03 1.696573000000000093e+03 1.695896999999999935e+03 1.695189000000000078e+03 1.694455999999999904e+03 1.693779999999999973e+03 1.693136999999999944e+03 1.692450000000000045e+03 1.691750999999999976e+03 1.690993999999999915e+03 1.690230000000000018e+03 1.689364000000000033e+03 1.688473999999999933e+03 1.687589999999999918e+03 1.686707000000000107e+03 1.685950000000000045e+03 1.685144000000000005e+03 1.684336000000000013e+03 1.684085000000000036e+03 1.683346999999999980e+03 1.682238000000000056e+03 1.681279999999999973e+03 1.680280999999999949e+03 1.680147999999999911e+03 1.679861000000000104e+03 1.677824000000000069e+03 1.676989000000000033e+03 1.676375000000000000e+03 1.675633000000000038e+03 1.674891000000000076e+03 1.674298999999999978e+03 1.673987000000000080e+03 1.672885999999999967e+03 1.671917999999999893e+03 1.671287000000000035e+03 1.670660000000000082e+03 1.670050999999999931e+03 1.669358999999999924e+03 1.668657999999999902e+03 1.667942999999999984e+03 1.667171000000000049e+03 1.666377999999999929e+03 1.665416999999999916e+03 1.664769999999999982e+03 1.664105999999999995e+03 1.663335000000000036e+03 1.662539999999999964e+03 1.661740000000000009e+03 1.660721000000000004e+03 1.659874000000000024e+03 1.659541999999999916e+03 1.659006000000000085e+03 1.658278000000000020e+03 1.657307000000000016e+03 1.656711999999999989e+03 1.656028000000000020e+03 1.655250999999999976e+03 1.654281999999999925e+03 1.653315000000000055e+03 1.652473999999999933e+03 1.651888999999999896e+03 1.650925999999999931e+03 1.650121000000000095e+03 1.649406999999999925e+03 1.648714999999999918e+03 1.648167999999999893e+03 1.648069999999999936e+03 1.647969000000000051e+03 1.648606999999999971e+03 1.649275000000000091e+03 1.650227000000000089e+03 1.650936999999999898e+03 1.651515000000000100e+03
1.704078999999999951e+03 1.704182999999999993e+03 1.704347999999999956e+03 1.704499000000000024e+03 1.704537000000000035e+03 1.704567999999999984e+03 1.704588999999999942e+03 1.704468000000000075e+03 1.704349999999999909e+03 1.704060999999999922e+03 1.703773999999999887e+03 1.703546000000000049e+03 1.703183999999999969e+03 1.702792999999999893e+03 1.702343000000000075e+03 1.701632000000000062e+03 1.700819999999999936e+03 1.700134000000000015e+03 1.700034000000000106e+03 1.699361000000000104e+03 1.698675999999999931e+03 1.697941000000000031e+03 1.697240000000000009e+03 1.696515000000000100e+03 1.695935999999999922e+03 1.695153000000000020e+03 1.694365999999999985e+03 1.693688000000000102e+03 1.693036000000000058e+03 1.692336999999999989e+03 1.691638999999999896e+03 1.690940000000000055e+03 1.690176999999999907e+03 1.689276000000000067e+03 1.688374000000000024e+03 1.687686999999999898e+03 1.686603000000000065e+03 1.685859999999999900e+03 1.685108999999999924e+03 1.684317000000000007e+03 1.683861000000000104e+03 1.683608999999999924e+03 1.682497000000000071e+03 1.681692999999999984e+03 1.680226000000000113e+03 1.679429000000000087e+03 1.679089999999999918e+03 1.678002999999999929e+03 1.677210000000000036e+03 1.676588999999999942e+03 1.675413000000000011e+03 1.674653999999999996e+03 1.674304000000000087e+03 1.673890000000000100e+03 1.673160000000000082e+03 1.672176999999999907e+03 1.671194999999999936e+03 1.670625999999999976e+03 1.670134000000000015e+03 1.669442000000000007e+03 1.668731999999999971e+03 1.668017000000000053e+03 1.667218000000000075e+03 1.666671000000000049e+03 1.665997000000000071e+03 1.664701999999999998e+03 1.663923999999999978e+03 1.663299999999999955e+03 1.662663999999999987e+03 1.661868999999999915e+03 1.660796000000000049e+03 1.659821999999999889e+03 1.659539999999999964e+03 1.658795000000000073e+03 1.657979000000000042e+03 1.657242999999999938e+03 1.656494999999999891e+03 1.655832000000000107e+03 1.655066000000000031e+03 1.654095000000000027e+03 1.653484999999999900e+03 1.652912000000000035e+03 1.652055000000000064e+03 1.651124000000000024e+03 1.650092000000000098e+03 1.649259999999999991e+03 1.648508000000000038e+03 1.647911000000000058e+03 1.647781999999999925e+03 1.647561999999999898e+03 1.648288000000000011e+03 1.648973999999999933e+03 1.649671000000000049e+03 1.650403000000000020e+03 1.650952999999999975e+03
1.703465999999999894e+03 1.703685999999999922e+03 1.703890000000000100e+03 1.704065000000000055e+03 1.704189000000000078e+03 1.704255000000000109e+03 1.704210000000000036e+03 1.704132000000000062e+03 1.703971999999999980e+03 1.703711999999999989e+03 1.703536000000000058e+03 1.703355000000000018e+03 1.702989000000000033e+03 1.702623000000000047e+03 1.702213999999999942e+03 1.701451000000000022e+03 1.700623000000000047e+03 1.700029999999999973e+03 1.699821999999999889e+03 1.699307000000000016e+03 1.698547000000000025e+03 1.697786000000000058e+03 1.697099999999999909e+03 1.696450000000000045e+03 1.695748000000000047e+03 1.695048000000000002e+03 1.694277000000000044e+03 1.693596000000000004e+03 1.692923000000000002e+03 1.692224999999999909e+03 1.691528999999999996e+03 1.690834000000000060e+03 1.690009000000000015e+03 1.689144999999999982e+03 1.688242999999999938e+03 1.687858999999999924e+03 1.686787000000000035e+03 1.685733999999999924e+03 1.684997000000000071e+03 1.684260999999999967e+03 1.683602000000000089e+03 1.683142000000000053e+03 1.682576999999999998e+03 1.681634999999999991e+03 1.680147999999999911e+03 1.679208000000000084e+03 1.678740000000000009e+03 1.678131000000000085e+03 1.677087999999999965e+03 1.676876999999999953e+03 1.675951000000000022e+03 1.674692999999999984e+03 1.674365999999999985e+03 1.674003999999999905e+03 1.673499000000000024e+03 1.672217000000000098e+03 1.671204999999999927e+03 1.670528999999999996e+03 1.670057000000000016e+03 1.669394999999999982e+03 1.668671000000000049e+03 1.667786000000000058e+03 1.667007000000000062e+03 1.666440000000000055e+03 1.665954999999999927e+03 1.664840999999999894e+03 1.664017000000000053e+03 1.663259999999999991e+03 1.662787000000000035e+03 1.661992999999999938e+03 1.660548000000000002e+03 1.659923999999999978e+03 1.659411000000000058e+03 1.658657999999999902e+03 1.657922000000000025e+03 1.657182999999999993e+03 1.656432999999999993e+03 1.655682999999999993e+03 1.654884999999999991e+03 1.654394000000000005e+03 1.653902000000000044e+03 1.653152000000000044e+03 1.652109999999999900e+03 1.651086999999999989e+03 1.650090999999999894e+03 1.649173999999999978e+03 1.648346999999999980e+03 1.647739000000000033e+03 1.647344000000000051e+03 1.647280999999999949e+03 1.647974999999999909e+03 1.648645999999999958e+03 1.649303000000000111e+03 1.649838999999999942e+03 1.650154999999999973e+03
1.702963999999999942e+03 1.703201000000000022e+03 1.703362000000000080e+03 1.703505000000000109e+03 1.703686999999999898e+03 1.703765000000000100e+03 1.703786000000000058e+03 1.703756000000000085e+03 1.703704999999999927e+03 1.703516000000000076e+03 1.703294000000000096e+03 1.703180000000000064e+03 1.703029999999999973e+03 1.702664999999999964e+03 1.702001999999999953e+03 1.701289999999999964e+03 1.700538000000000011e+03 1.699872000000000071e+03 1.699623000000000047e+03 1.699210000000000036e+03 1.698432999999999993e+03 1.697632000000000062e+03 1.696961999999999989e+03 1.696353000000000065e+03 1.695601000000000113e+03 1.694940000000000055e+03 1.694191000000000031e+03 1.693516000000000076e+03 1.692815000000000055e+03 1.692119999999999891e+03 1.691424999999999955e+03 1.690673999999999978e+03 1.689826000000000022e+03 1.688979000000000042e+03 1.688338999999999942e+03 1.688127999999999929e+03 1.687104000000000042e+03 1.685875999999999976e+03 1.684864000000000033e+03 1.684127999999999929e+03 1.683403999999999996e+03 1.682684999999999945e+03 1.681964999999999918e+03 1.681336000000000013e+03 1.680269999999999982e+03 1.679409000000000106e+03 1.678547000000000025e+03 1.678009000000000015e+03 1.677130000000000109e+03 1.676696999999999889e+03 1.676358999999999924e+03 1.674837999999999965e+03 1.674200000000000045e+03 1.673852000000000089e+03 1.673108999999999924e+03 1.672041999999999916e+03 1.671239000000000033e+03 1.670448000000000093e+03 1.669876999999999953e+03 1.669146999999999935e+03 1.668738000000000056e+03 1.668222999999999956e+03 1.666700000000000045e+03 1.666130000000000109e+03 1.665691000000000031e+03 1.665044000000000096e+03 1.664135999999999967e+03 1.663192999999999984e+03 1.662297000000000025e+03 1.661482999999999947e+03 1.660372000000000071e+03 1.659839999999999918e+03 1.659290999999999940e+03 1.658564000000000078e+03 1.657865000000000009e+03 1.657122000000000071e+03 1.656372000000000071e+03 1.655576000000000022e+03 1.654710000000000036e+03 1.653954999999999927e+03 1.653259000000000015e+03 1.652305000000000064e+03 1.651519999999999982e+03 1.650753999999999905e+03 1.649972999999999956e+03 1.649102000000000089e+03 1.648231999999999971e+03 1.647500000000000000e+03 1.646902000000000044e+03 1.647065000000000055e+03 1.647557000000000016e+03 1.648199000000000069e+03 1.648837999999999965e+03 1.649240999999999985e+03 1.649685999999999922e+03
1.702509999999999991e+03 1.702676999999999907e+03 1.702827999999999975e+03 1.703049999999999955e+03 1.703175999999999931e+03 1.703266000000000076e+03 1.703334000000000060e+03 1.703488000000000056e+03 1.703363000000000056e+03 1.703220000000000027e+03 1.703040999999999940e+03 1.702968000000000075e+03 1.702924999999999955e+03 1.702503999999999905e+03 1.701790999999999940e+03 1.701077999999999975e+03 1.700365999999999985e+03 1.699682000000000016e+03 1.699401000000000067e+03 1.698969000000000051e+03 1.698413000000000011e+03 1.697713999999999942e+03 1.696980000000000018e+03 1.696256000000000085e+03 1.695673999999999978e+03 1.694926999999999907e+03 1.694085000000000036e+03 1.693433999999999969e+03 1.692724999999999909e+03 1.692016000000000076e+03 1.691320999999999913e+03 1.690490999999999985e+03 1.689643000000000029e+03 1.688862000000000080e+03 1.688189000000000078e+03 1.688038000000000011e+03 1.687478000000000065e+03 1.686250000000000000e+03 1.685022999999999911e+03 1.684002999999999929e+03 1.683287000000000035e+03 1.682570999999999913e+03 1.681855000000000018e+03 1.681137999999999920e+03 1.680529999999999973e+03 1.679650000000000091e+03 1.678770999999999958e+03 1.677891000000000076e+03 1.677951000000000022e+03 1.678255000000000109e+03 1.676221999999999980e+03 1.675259000000000015e+03 1.674034000000000106e+03 1.673561999999999898e+03 1.672657999999999902e+03 1.672365000000000009e+03 1.671544000000000096e+03 1.670633000000000038e+03 1.669932999999999993e+03 1.669008000000000038e+03 1.668396999999999935e+03 1.667964999999999918e+03 1.666594000000000051e+03 1.665980000000000018e+03 1.665314000000000078e+03 1.664444999999999936e+03 1.663625000000000000e+03 1.662863000000000056e+03 1.662182000000000016e+03 1.661412000000000035e+03 1.660202999999999975e+03 1.659999000000000024e+03 1.659199000000000069e+03 1.658468000000000075e+03 1.657807000000000016e+03 1.657059999999999945e+03 1.656213999999999942e+03 1.655338999999999942e+03 1.654463999999999942e+03 1.653695999999999913e+03 1.652948000000000093e+03 1.652211000000000013e+03 1.651433999999999969e+03 1.650568999999999960e+03 1.649865000000000009e+03 1.649030999999999949e+03 1.648130000000000109e+03 1.647315000000000055e+03 1.646763999999999896e+03 1.646818999999999960e+03 1.647352000000000089e+03 1.648011999999999944e+03 1.648458000000000084e+03 1.648807999999999993e+03 1.649252999999999929e+03
1.702000999999999976e+03 1.702269000000000005e+03 1.702527000000000044e+03 1.702599999999999909e+03 1.702634000000000015e+03 1.702759999999999991e+03 1.702857999999999947e+03 1.702990000000000009e+03 1.702935999999999922e+03 1.702808999999999969e+03 1.702659000000000106e+03 1.702461999999999989e+03 1.702413000000000011e+03 1.702325000000000045e+03 1.701672000000000025e+03 1.700954999999999927e+03 1.700240000000000009e+03 1.699529999999999973e+03 1.699259000000000015e+03 1.698846999999999980e+03 1.698259000000000015e+03 1.697490000000000009e+03 1.696755000000000109e+03 1.696028000000000020e+03 1.695364000000000033e+03 1.694673000000000002e+03 1.693976000000000113e+03 1.693324000000000069e+03 1.692631000000000085e+03 1.691912000000000035e+03 1.691155999999999949e+03 1.690343000000000075e+03 1.689569999999999936e+03 1.688797000000000025e+03 1.688022999999999911e+03 1.687867999999999938e+03 1.686939000000000078e+03 1.685711000000000013e+03 1.685070999999999913e+03 1.683924999999999955e+03 1.683189000000000078e+03 1.682472999999999956e+03 1.681757000000000062e+03 1.681040999999999940e+03 1.680555000000000064e+03 1.679974999999999909e+03 1.679096000000000004e+03 1.678050999999999931e+03 1.677474999999999909e+03 1.677086999999999989e+03 1.675827999999999975e+03 1.675339999999999918e+03 1.673840999999999894e+03 1.673184999999999945e+03 1.672709000000000060e+03 1.672525000000000091e+03 1.671794000000000096e+03 1.670795000000000073e+03 1.670186999999999898e+03 1.668923000000000002e+03 1.668130000000000109e+03 1.667336999999999989e+03 1.666544000000000096e+03 1.665824000000000069e+03 1.665132000000000062e+03 1.664258000000000038e+03 1.663747000000000071e+03 1.663121000000000095e+03 1.662339999999999918e+03 1.661365999999999985e+03 1.660233999999999924e+03 1.659951000000000022e+03 1.659132000000000062e+03 1.658410000000000082e+03 1.657738000000000056e+03 1.656898999999999887e+03 1.656060999999999922e+03 1.655222999999999956e+03 1.654397999999999911e+03 1.653607999999999947e+03 1.652855000000000018e+03 1.652105999999999995e+03 1.651347999999999956e+03 1.650564000000000078e+03 1.649830999999999904e+03 1.649040999999999940e+03 1.648087999999999965e+03 1.647227000000000089e+03 1.646636999999999944e+03 1.646547000000000025e+03 1.647174999999999955e+03 1.647602000000000089e+03 1.648006000000000085e+03 1.648410000000000082e+03 1.648814000000000078e+03
1.701646999999999935e+03 1.701765000000000100e+03 1.701862000000000080e+03 1.702108999999999924e+03 1.702188000000000102e+03 1.702395999999999958e+03 1.702480999999999995e+03 1.702540999999999940e+03 1.702544000000000096e+03 1.702457000000000107e+03 1.702342000000000098e+03 1.702230000000000018e+03 1.702134000000000015e+03 1.702050999999999931e+03 1.701548999999999978e+03 1.700828999999999951e+03 1.700099999999999909e+03 1.699500000000000000e+03 1.699059999999999945e+03 1.698625999999999976e+03 1.698078999999999951e+03 1.697309999999999945e+03 1.696540999999999940e+03 1.695800999999999931e+03 1.695173999999999978e+03 1.694608999999999924e+03 1.693863000000000056e+03 1.693210000000000036e+03 1.692558999999999969e+03 1.691898999999999887e+03 1.691050999999999931e+03 1.690278000000000020e+03 1.689505000000000109e+03 1.688730999999999995e+03 1.687958000000000084e+03 1.687626999999999953e+03 1.686398999999999887e+03 1.685952999999999975e+03 1.684962999999999965e+03 1.683858999999999924e+03 1.683115999999999985e+03 1.682375000000000000e+03 1.681659000000000106e+03 1.680942999999999984e+03 1.680326999999999998e+03 1.680096000000000004e+03 1.679421000000000049e+03 1.678055000000000064e+03 1.677387999999999920e+03 1.676397999999999911e+03 1.675563000000000102e+03 1.674526000000000067e+03 1.673830999999999904e+03 1.673182000000000016e+03 1.672616999999999962e+03 1.672436999999999898e+03 1.671789999999999964e+03 1.670359999999999900e+03 1.669638999999999896e+03 1.668913999999999987e+03 1.668119999999999891e+03 1.667326999999999998e+03 1.666676999999999907e+03 1.665950000000000045e+03 1.665082000000000107e+03 1.664361000000000104e+03 1.663736000000000104e+03 1.663396999999999935e+03 1.662460000000000036e+03 1.661212999999999965e+03 1.660170000000000073e+03 1.659700000000000045e+03 1.659035000000000082e+03 1.658393000000000029e+03 1.657743999999999915e+03 1.656858999999999924e+03 1.655988000000000056e+03 1.655164999999999964e+03 1.654355999999999995e+03 1.653548000000000002e+03 1.652778000000000020e+03 1.652010999999999967e+03 1.651258000000000038e+03 1.650412000000000035e+03 1.649794000000000096e+03 1.649093000000000075e+03 1.648075000000000045e+03 1.647167999999999893e+03 1.646538999999999987e+03 1.646412000000000035e+03 1.646465999999999894e+03 1.646682999999999993e+03 1.647236000000000104e+03 1.647779999999999973e+03 1.648231999999999971e+03
1.701057000000000016e+03 1.701125000000000000e+03 1.701279999999999973e+03 1.701483999999999924e+03 1.701712999999999965e+03 1.702020999999999958e+03 1.702032999999999902e+03 1.701999000000000024e+03 1.702064000000000078e+03 1.702074000000000069e+03 1.701960000000000036e+03 1.701861000000000104e+03 1.701903999999999996e+03 1.701865999999999985e+03 1.701250000000000000e+03 1.700574000000000069e+03 1.699917999999999893e+03 1.699390000000000100e+03 1.698938000000000102e+03 1.698491999999999962e+03 1.697871000000000095e+03 1.697181000000000040e+03 1.696412000000000035e+03 1.695664999999999964e+03 1.695088999999999942e+03 1.694438000000000102e+03 1.693749000000000024e+03 1.693084000000000060e+03 1.692519999999999982e+03 1.692131000000000085e+03 1.690823000000000093e+03 1.690106999999999971e+03 1.689390000000000100e+03 1.688665999999999940e+03 1.687892000000000053e+03 1.687086999999999989e+03 1.686835000000000036e+03 1.686586999999999989e+03 1.684560999999999922e+03 1.683777000000000044e+03 1.683049999999999955e+03 1.682307000000000016e+03 1.681564000000000078e+03 1.680845000000000027e+03 1.680128999999999905e+03 1.679867999999999938e+03 1.679334000000000060e+03 1.677813000000000102e+03 1.677226000000000113e+03 1.676526000000000067e+03 1.675222999999999956e+03 1.674529999999999973e+03 1.673837999999999965e+03 1.673195999999999913e+03 1.672519000000000005e+03 1.672170000000000073e+03 1.671798999999999978e+03 1.670342000000000098e+03 1.669557000000000016e+03 1.668903000000000020e+03 1.668108999999999924e+03 1.667457000000000107e+03 1.666811999999999898e+03 1.666080999999999904e+03 1.665060999999999922e+03 1.664394999999999982e+03 1.663674999999999955e+03 1.663284000000000106e+03 1.662295000000000073e+03 1.660954999999999927e+03 1.660250000000000000e+03 1.659871000000000095e+03 1.659011999999999944e+03 1.658432000000000016e+03 1.657750999999999976e+03 1.656888999999999896e+03 1.656038999999999987e+03 1.655202999999999975e+03 1.654375000000000000e+03 1.653546000000000049e+03 1.652769999999999982e+03 1.652019000000000005e+03 1.651233999999999924e+03 1.650388999999999896e+03 1.649662000000000035e+03 1.649009000000000015e+03 1.648078999999999951e+03 1.647152000000000044e+03 1.646430000000000064e+03 1.645877999999999929e+03 1.645911000000000058e+03 1.646164999999999964e+03 1.646720000000000027e+03 1.647275000000000091e+03 1.647596999999999980e+03
1.700413999999999987e+03 1.700663999999999987e+03 1.700814000000000078e+03 1.701034000000000106e+03 1.701190000000000055e+03 1.701590999999999894e+03 1.701484999999999900e+03 1.701462999999999965e+03 1.701626999999999953e+03 1.701864000000000033e+03 1.701583000000000084e+03 1.701420000000000073e+03 1.701541999999999916e+03 1.701648999999999887e+03 1.700942999999999984e+03 1.700252999999999929e+03 1.699419000000000096e+03 1.699240000000000009e+03 1.698853000000000065e+03 1.698178000000000111e+03 1.697615000000000009e+03 1.697054000000000087e+03 1.696326000000000022e+03 1.695612000000000080e+03 1.694901000000000067e+03 1.694259999999999991e+03 1.693631000000000085e+03 1.693044000000000096e+03 1.692421000000000049e+03 1.691779999999999973e+03 1.690858999999999924e+03 1.689853000000000065e+03 1.689136999999999944e+03 1.688421000000000049e+03 1.687859999999999900e+03 1.687717000000000098e+03 1.687469000000000051e+03 1.686667999999999893e+03 1.684328999999999951e+03 1.683690000000000055e+03 1.682983999999999924e+03 1.682240999999999985e+03 1.681498000000000047e+03 1.680753999999999905e+03 1.680031999999999925e+03 1.679640000000000100e+03 1.678413999999999987e+03 1.677817999999999984e+03 1.677192999999999984e+03 1.676598999999999933e+03 1.675405999999999949e+03 1.674554000000000087e+03 1.673862000000000080e+03 1.673340999999999894e+03 1.672753999999999905e+03 1.672155999999999949e+03 1.671468000000000075e+03 1.670354000000000042e+03 1.669442999999999984e+03 1.668886999999999944e+03 1.668237000000000080e+03 1.667602000000000089e+03 1.666942999999999984e+03 1.666060999999999922e+03 1.665040999999999940e+03 1.664342000000000098e+03 1.663708000000000084e+03 1.663111000000000104e+03 1.661984999999999900e+03 1.660856999999999971e+03 1.660290999999999940e+03 1.659935999999999922e+03 1.659102000000000089e+03 1.658416999999999916e+03 1.657751999999999953e+03 1.656977000000000089e+03 1.656131000000000085e+03 1.655296000000000049e+03 1.654460000000000036e+03 1.653623000000000047e+03 1.652842000000000098e+03 1.652113000000000056e+03 1.651268000000000029e+03 1.650419000000000096e+03 1.649576000000000022e+03 1.648742999999999938e+03 1.647913000000000011e+03 1.647085000000000036e+03 1.646453999999999951e+03 1.645679000000000087e+03 1.645314000000000078e+03 1.645646999999999935e+03 1.646170000000000073e+03 1.646578999999999951e+03 1.647002999999999929e+03
1.700030999999999949e+03 1.700213999999999942e+03 1.700386999999999944e+03 1.700689000000000078e+03 1.700761999999999944e+03 1.700904999999999973e+03 1.700878999999999905e+03 1.700977000000000089e+03 1.701066000000000031e+03 1.701112000000000080e+03 1.701128999999999905e+03 1.700988000000000056e+03 1.701054000000000087e+03 1.701204999999999927e+03 1.700589999999999918e+03 1.699928000000000111e+03 1.699311999999999898e+03 1.699035000000000082e+03 1.698682999999999993e+03 1.698147999999999911e+03 1.697594000000000051e+03 1.696964999999999918e+03 1.696186999999999898e+03 1.695462999999999965e+03 1.694751999999999953e+03 1.694142000000000053e+03 1.693509000000000015e+03 1.692893000000000029e+03 1.692319999999999936e+03 1.691519000000000005e+03 1.690577999999999975e+03 1.689664999999999964e+03 1.689094000000000051e+03 1.688584000000000060e+03 1.688096000000000004e+03 1.688217000000000098e+03 1.688103000000000065e+03 1.686266000000000076e+03 1.684242999999999938e+03 1.683604000000000042e+03 1.682917999999999893e+03 1.682174999999999955e+03 1.681432000000000016e+03 1.680688000000000102e+03 1.679944999999999936e+03 1.679173000000000002e+03 1.678393000000000029e+03 1.677844000000000051e+03 1.677137999999999920e+03 1.676387999999999920e+03 1.675625000000000000e+03 1.674578999999999951e+03 1.674000000000000000e+03 1.673484999999999900e+03 1.672876999999999953e+03 1.672190000000000055e+03 1.671153000000000020e+03 1.670241999999999962e+03 1.669666999999999916e+03 1.668946999999999889e+03 1.668384000000000015e+03 1.667748000000000047e+03 1.667073000000000093e+03 1.666030999999999949e+03 1.665020999999999958e+03 1.664288999999999987e+03 1.663738000000000056e+03 1.663382000000000062e+03 1.662165999999999940e+03 1.661059999999999945e+03 1.660260999999999967e+03 1.659897999999999911e+03 1.659354000000000042e+03 1.658462999999999965e+03 1.657731999999999971e+03 1.657076999999999998e+03 1.656336000000000013e+03 1.655474999999999909e+03 1.654605999999999995e+03 1.653736000000000104e+03 1.652846999999999980e+03 1.652070999999999913e+03 1.651252999999999929e+03 1.650395999999999958e+03 1.649594000000000051e+03 1.648778000000000020e+03 1.647902000000000044e+03 1.647095000000000027e+03 1.646374000000000024e+03 1.645349999999999909e+03 1.644895999999999958e+03 1.645048999999999978e+03 1.645459000000000060e+03 1.645867999999999938e+03 1.646425999999999931e+03
1.699680000000000064e+03 1.699740999999999985e+03 1.699815000000000055e+03 1.700046000000000049e+03 1.700226000000000113e+03 1.700324000000000069e+03 1.700430000000000064e+03 1.700512999999999920e+03 1.700662000000000035e+03 1.700849999999999909e+03 1.700770999999999958e+03 1.700680000000000064e+03 1.700604000000000042e+03 1.700559999999999945e+03 1.700356999999999971e+03 1.699605999999999995e+03 1.698970000000000027e+03 1.698800999999999931e+03 1.698414999999999964e+03 1.697948000000000093e+03 1.697535000000000082e+03 1.697058999999999969e+03 1.696107999999999947e+03 1.695162000000000035e+03 1.694527000000000044e+03 1.694010999999999967e+03 1.693367999999999938e+03 1.692738000000000056e+03 1.692078999999999951e+03 1.691376999999999953e+03 1.690435999999999922e+03 1.689709000000000060e+03 1.689308999999999969e+03 1.688798999999999978e+03 1.688501999999999953e+03 1.688623000000000047e+03 1.688483999999999924e+03 1.685865000000000009e+03 1.684155999999999949e+03 1.683518000000000029e+03 1.682852000000000089e+03 1.682108999999999924e+03 1.681365999999999985e+03 1.680622000000000071e+03 1.679875999999999976e+03 1.679395999999999958e+03 1.679116999999999962e+03 1.678090999999999894e+03 1.676848999999999933e+03 1.675942000000000007e+03 1.675163999999999987e+03 1.674644999999999982e+03 1.674151000000000067e+03 1.673583000000000084e+03 1.672775000000000091e+03 1.671967000000000098e+03 1.671513999999999896e+03 1.670962999999999965e+03 1.669948000000000093e+03 1.669031999999999925e+03 1.668587999999999965e+03 1.667901000000000067e+03 1.667054000000000087e+03 1.666000999999999976e+03 1.665001999999999953e+03 1.664276000000000067e+03 1.663692999999999984e+03 1.663049999999999955e+03 1.662056000000000040e+03 1.660977000000000089e+03 1.660326999999999998e+03 1.659915999999999940e+03 1.659107999999999947e+03 1.658286000000000058e+03 1.657742999999999938e+03 1.657128999999999905e+03 1.656489000000000033e+03 1.655609999999999900e+03 1.654701000000000022e+03 1.653791999999999916e+03 1.652902000000000044e+03 1.652028000000000020e+03 1.651214999999999918e+03 1.650381000000000085e+03 1.649507000000000062e+03 1.648635999999999967e+03 1.647852000000000089e+03 1.647054000000000087e+03 1.646186999999999898e+03 1.645270999999999958e+03 1.644645999999999958e+03 1.644490999999999985e+03 1.644747000000000071e+03 1.645155999999999949e+03 1.645750000000000000e+03
1.698925999999999931e+03 1.699237000000000080e+03 1.699358999999999924e+03 1.699613000000000056e+03 1.699743999999999915e+03 1.699875000000000000e+03 1.700009999999999991e+03 1.700104000000000042e+03 1.700486000000000104e+03 1.700411000000000058e+03 1.700281999999999925e+03 1.700221000000000004e+03 1.700198000000000093e+03 1.700124000000000024e+03 1.699807999999999993e+03 1.699164999999999964e+03 1.698731999999999971e+03 1.698525000000000091e+03 1.698192999999999984e+03 1.697789999999999964e+03 1.697410000000000082e+03 1.696796000000000049e+03 1.696021999999999935e+03 1.695248000000000047e+03 1.694423000000000002e+03 1.693920000000000073e+03 1.693246000000000095e+03 1.692544000000000096e+03 1.691836999999999989e+03 1.691178000000000111e+03 1.690303000000000111e+03 1.689417999999999893e+03 1.689102000000000089e+03 1.689013999999999896e+03 1.688907999999999902e+03 1.688604000000000042e+03 1.688107999999999947e+03 1.686121000000000095e+03 1.684069999999999936e+03 1.683432000000000016e+03 1.682787000000000035e+03 1.682041999999999916e+03 1.681296000000000049e+03 1.680549999999999955e+03 1.679768000000000029e+03 1.679272999999999911e+03 1.678579999999999927e+03 1.678200000000000045e+03 1.677522999999999911e+03 1.676420000000000073e+03 1.675320999999999913e+03 1.674722999999999956e+03 1.674073000000000093e+03 1.673296000000000049e+03 1.672248000000000047e+03 1.671487000000000080e+03 1.671151000000000067e+03 1.670814000000000078e+03 1.670133000000000038e+03 1.669038999999999987e+03 1.668057000000000016e+03 1.667708000000000084e+03 1.667317000000000007e+03 1.666144999999999982e+03 1.665105999999999995e+03 1.664270999999999958e+03 1.663731999999999971e+03 1.663340999999999894e+03 1.661944999999999936e+03 1.660810999999999922e+03 1.660388999999999896e+03 1.659866999999999962e+03 1.659105000000000018e+03 1.658282999999999902e+03 1.657713999999999942e+03 1.657130000000000109e+03 1.656412000000000035e+03 1.655663000000000011e+03 1.654753999999999905e+03 1.653845000000000027e+03 1.652960000000000036e+03 1.652086000000000013e+03 1.651211999999999989e+03 1.650359999999999900e+03 1.649509000000000015e+03 1.648644000000000005e+03 1.647934999999999945e+03 1.647078999999999951e+03 1.646269000000000005e+03 1.645375000000000000e+03 1.644671000000000049e+03 1.644134999999999991e+03 1.644244999999999891e+03 1.644469000000000051e+03 1.645070999999999913e+03
1.698345000000000027e+03 1.698601000000000113e+03 1.698883000000000038e+03 1.699125000000000000e+03 1.699250000000000000e+03 1.699351000000000113e+03 1.699509999999999991e+03 1.699840999999999894e+03 1.699977000000000089e+03 1.699936999999999898e+03 1.699797000000000025e+03 1.699742999999999938e+03 1.699775000000000091e+03 1.699587999999999965e+03 1.699243999999999915e+03 1.698950000000000045e+03 1.698767000000000053e+03 1.698414999999999964e+03 1.697973999999999933e+03 1.697576999999999998e+03 1.697156999999999925e+03 1.696465999999999894e+03 1.695692000000000007e+03 1.694917999999999893e+03 1.694300999999999931e+03 1.693859999999999900e+03 1.693290999999999940e+03 1.692751999999999953e+03 1.691907999999999902e+03 1.691063000000000102e+03 1.690209000000000060e+03 1.689329999999999927e+03 1.688717000000000098e+03 1.688728000000000065e+03 1.688211000000000013e+03 1.687701000000000022e+03 1.687204999999999927e+03 1.686522999999999911e+03 1.684378999999999905e+03 1.683452999999999975e+03 1.682773999999999887e+03 1.681858999999999924e+03 1.681223999999999933e+03 1.680478000000000065e+03 1.679637999999999920e+03 1.678922000000000025e+03 1.678506000000000085e+03 1.678084000000000060e+03 1.676872000000000071e+03 1.675855999999999995e+03 1.675522999999999911e+03 1.674662000000000035e+03 1.673875999999999976e+03 1.673047000000000025e+03 1.672240999999999985e+03 1.671387999999999920e+03 1.670791999999999916e+03 1.670670000000000073e+03 1.670630000000000109e+03 1.669471000000000004e+03 1.668393000000000029e+03 1.667415999999999940e+03 1.666597999999999956e+03 1.665877999999999929e+03 1.665183999999999969e+03 1.664415999999999940e+03 1.663875999999999976e+03 1.663621000000000095e+03 1.661852000000000089e+03 1.660897999999999911e+03 1.660313000000000102e+03 1.659830999999999904e+03 1.659126999999999953e+03 1.658355999999999995e+03 1.657765000000000100e+03 1.656972999999999956e+03 1.656205999999999904e+03 1.655546000000000049e+03 1.654806000000000040e+03 1.653897999999999911e+03 1.653019000000000005e+03 1.652144000000000005e+03 1.651269999999999982e+03 1.650394999999999982e+03 1.649532999999999902e+03 1.648807999999999993e+03 1.647999000000000024e+03 1.647188000000000102e+03 1.646376999999999953e+03 1.645520999999999958e+03 1.644731999999999971e+03 1.644058999999999969e+03 1.644179000000000087e+03 1.644292999999999893e+03 1.644633000000000038e+03
1.697757000000000062e+03 1.698099999999999909e+03 1.698384999999999991e+03 1.698525000000000091e+03 1.698650000000000091e+03 1.698844000000000051e+03 1.699055000000000064e+03 1.699268000000000029e+03 1.699303000000000111e+03 1.699286000000000058e+03 1.699290999999999940e+03 1.699316000000000031e+03 1.699352000000000089e+03 1.699108999999999924e+03 1.698790999999999940e+03 1.698561999999999898e+03 1.698482999999999947e+03 1.698134999999999991e+03 1.697715999999999894e+03 1.697346999999999980e+03 1.696886999999999944e+03 1.696135999999999967e+03 1.695362000000000080e+03 1.694732999999999947e+03 1.694172000000000025e+03 1.693709000000000060e+03 1.693192999999999984e+03 1.692586999999999989e+03 1.692027000000000044e+03 1.691136999999999944e+03 1.690176999999999907e+03 1.689321999999999889e+03 1.688535000000000082e+03 1.687982999999999947e+03 1.687541999999999916e+03 1.687101000000000113e+03 1.686689000000000078e+03 1.685875000000000000e+03 1.685184999999999945e+03 1.683500999999999976e+03 1.682788000000000011e+03 1.681699000000000069e+03 1.680941000000000031e+03 1.680337999999999965e+03 1.679579999999999927e+03 1.678990999999999985e+03 1.678663000000000011e+03 1.678131000000000085e+03 1.676932999999999993e+03 1.676228000000000065e+03 1.675740000000000009e+03 1.674817999999999984e+03 1.673792999999999893e+03 1.673337999999999965e+03 1.672648999999999887e+03 1.671742999999999938e+03 1.670616999999999962e+03 1.670326999999999998e+03 1.670376999999999953e+03 1.669691000000000031e+03 1.668509999999999991e+03 1.667393000000000029e+03 1.666680000000000064e+03 1.665911000000000058e+03 1.665414999999999964e+03 1.664627999999999929e+03 1.664116999999999962e+03 1.663743999999999915e+03 1.661971999999999980e+03 1.661016000000000076e+03 1.660381000000000085e+03 1.659896999999999935e+03 1.659230000000000018e+03 1.658586000000000013e+03 1.657896999999999935e+03 1.657051999999999907e+03 1.656179000000000087e+03 1.655421000000000049e+03 1.654681000000000040e+03 1.653951000000000022e+03 1.653067999999999984e+03 1.652157999999999902e+03 1.651248000000000047e+03 1.650413000000000011e+03 1.649631000000000085e+03 1.648852000000000089e+03 1.648442000000000007e+03 1.647537000000000035e+03 1.646602000000000089e+03 1.645769000000000005e+03 1.645354000000000042e+03 1.644627999999999929e+03 1.643925999999999931e+03 1.644054000000000087e+03 1.643923000000000002e+03
1.697167999999999893e+03 1.697442000000000007e+03 1.697703999999999951e+03 1.697922000000000025e+03 1.698122000000000071e+03 1.698307999999999993e+03 1.698493999999999915e+03 1.698708000000000084e+03 1.698833000000000084e+03 1.698853000000000065e+03 1.698876999999999953e+03 1.698902000000000044e+03 1.698933999999999969e+03 1.698673999999999978e+03 1.698424999999999955e+03 1.698498000000000047e+03 1.698200000000000045e+03 1.697788000000000011e+03 1.697459000000000060e+03 1.697094000000000051e+03 1.696579999999999927e+03 1.695805000000000064e+03 1.695164999999999964e+03 1.694604000000000042e+03 1.694042999999999893e+03 1.693501999999999953e+03 1.692911000000000058e+03 1.692305000000000064e+03 1.691888999999999896e+03 1.691133000000000038e+03 1.690201000000000022e+03 1.689240999999999985e+03 1.688420000000000073e+03 1.687898999999999887e+03 1.687458000000000084e+03 1.687077999999999975e+03 1.686673000000000002e+03 1.685730999999999995e+03 1.684788999999999987e+03 1.683847999999999956e+03 1.682801999999999907e+03 1.681613000000000056e+03 1.681013999999999896e+03 1.680416999999999916e+03 1.679827999999999975e+03 1.679239000000000033e+03 1.678752999999999929e+03 1.678192000000000007e+03 1.677269999999999982e+03 1.676587999999999965e+03 1.675483999999999924e+03 1.674575000000000045e+03 1.673596999999999980e+03 1.673028000000000020e+03 1.672554000000000087e+03 1.671444999999999936e+03 1.670588999999999942e+03 1.670061999999999898e+03 1.669701000000000022e+03 1.669089999999999918e+03 1.668310999999999922e+03 1.667338999999999942e+03 1.666682999999999993e+03 1.665874000000000024e+03 1.665299999999999955e+03 1.664663999999999987e+03 1.663910000000000082e+03 1.662957000000000107e+03 1.661707000000000107e+03 1.660765000000000100e+03 1.660517000000000053e+03 1.659920000000000073e+03 1.659292999999999893e+03 1.658638999999999896e+03 1.658160000000000082e+03 1.657451000000000022e+03 1.656529999999999973e+03 1.655723999999999933e+03 1.654804000000000087e+03 1.653866999999999962e+03 1.652998000000000047e+03 1.652087999999999965e+03 1.651288000000000011e+03 1.650484999999999900e+03 1.649681000000000040e+03 1.648861000000000104e+03 1.648528000000000020e+03 1.648240999999999985e+03 1.647538000000000011e+03 1.646492999999999938e+03 1.645805000000000064e+03 1.644957000000000107e+03 1.643836999999999989e+03 1.643471000000000004e+03 1.643246000000000095e+03
1.697096999999999980e+03 1.697200000000000045e+03 1.697251999999999953e+03 1.697517000000000053e+03 1.697628999999999905e+03 1.697756000000000085e+03 1.697941000000000031e+03 1.698143000000000029e+03 1.698271999999999935e+03 1.698356999999999971e+03 1.698412000000000035e+03 1.698402000000000044e+03 1.698406999999999925e+03 1.698263999999999896e+03 1.698412000000000035e+03 1.698278999999999996e+03 1.697924999999999955e+03 1.697487000000000080e+03 1.697210000000000036e+03 1.696824000000000069e+03 1.696249000000000024e+03 1.695597999999999956e+03 1.695037000000000035e+03 1.694476000000000113e+03 1.693917999999999893e+03 1.693355999999999995e+03 1.692618999999999915e+03 1.692035000000000082e+03 1.691390000000000100e+03 1.690634000000000015e+03 1.689876999999999953e+03 1.689121000000000095e+03 1.688305000000000064e+03 1.687852000000000089e+03 1.687472999999999956e+03 1.687186999999999898e+03 1.686528999999999996e+03 1.685586999999999989e+03 1.684644000000000005e+03 1.683701999999999998e+03 1.682951999999999998e+03 1.681461999999999989e+03 1.681112000000000080e+03 1.680612000000000080e+03 1.679986000000000104e+03 1.679359999999999900e+03 1.678632000000000062e+03 1.678311999999999898e+03 1.677287000000000035e+03 1.676134999999999991e+03 1.675325000000000045e+03 1.674407999999999902e+03 1.673372000000000071e+03 1.672671000000000049e+03 1.672180000000000064e+03 1.671493999999999915e+03 1.670605999999999995e+03 1.670042999999999893e+03 1.669231999999999971e+03 1.668532999999999902e+03 1.667835000000000036e+03 1.667167999999999893e+03 1.666509000000000015e+03 1.665781999999999925e+03 1.665015000000000100e+03 1.664299999999999955e+03 1.663463999999999942e+03 1.662476000000000113e+03 1.661570999999999913e+03 1.660778999999999996e+03 1.660395999999999958e+03 1.659701999999999998e+03 1.658979000000000042e+03 1.658329999999999927e+03 1.657482999999999947e+03 1.656656999999999925e+03 1.655993999999999915e+03 1.655314000000000078e+03 1.654567000000000007e+03 1.653741999999999962e+03 1.652914999999999964e+03 1.652131000000000085e+03 1.651337999999999965e+03 1.650536000000000058e+03 1.649726000000000113e+03 1.648971000000000004e+03 1.648476000000000113e+03 1.648153999999999996e+03 1.647642000000000053e+03 1.646412000000000035e+03 1.645392000000000053e+03 1.644243999999999915e+03 1.643696999999999889e+03 1.643333000000000084e+03 1.643111000000000104e+03
1.696442999999999984e+03 1.696785000000000082e+03 1.696904999999999973e+03 1.697185999999999922e+03 1.697333000000000084e+03 1.697451999999999998e+03 1.697532999999999902e+03 1.697682999999999993e+03 1.697836999999999989e+03 1.697901000000000067e+03 1.697932000000000016e+03 1.697994999999999891e+03 1.698140000000000100e+03 1.698255000000000109e+03 1.698041999999999916e+03 1.697869999999999891e+03 1.697621000000000095e+03 1.697171000000000049e+03 1.696832000000000107e+03 1.696492999999999938e+03 1.696038999999999987e+03 1.695499000000000024e+03 1.694958000000000084e+03 1.694416999999999916e+03 1.693845000000000027e+03 1.693133000000000038e+03 1.692481999999999971e+03 1.691905999999999949e+03 1.691326999999999998e+03 1.690688000000000102e+03 1.689914999999999964e+03 1.689145999999999958e+03 1.688378999999999905e+03 1.687866999999999962e+03 1.687569999999999936e+03 1.687304000000000087e+03 1.686384999999999991e+03 1.685442999999999984e+03 1.684540999999999940e+03 1.683798000000000002e+03 1.683055000000000064e+03 1.681659000000000106e+03 1.681229000000000042e+03 1.680717000000000098e+03 1.680084000000000060e+03 1.679393000000000029e+03 1.678645999999999958e+03 1.677990000000000009e+03 1.677041999999999916e+03 1.675948000000000093e+03 1.675287000000000035e+03 1.674671000000000049e+03 1.673345000000000027e+03 1.672608999999999924e+03 1.671916999999999916e+03 1.671229000000000042e+03 1.670585000000000036e+03 1.669960000000000036e+03 1.669155999999999949e+03 1.668317999999999984e+03 1.667673999999999978e+03 1.667060999999999922e+03 1.666404999999999973e+03 1.665670000000000073e+03 1.664858999999999924e+03 1.664211999999999989e+03 1.663215999999999894e+03 1.662353000000000065e+03 1.661570999999999913e+03 1.660875000000000000e+03 1.660359999999999900e+03 1.659634000000000015e+03 1.658829999999999927e+03 1.658076999999999998e+03 1.657359999999999900e+03 1.656558999999999969e+03 1.655798999999999978e+03 1.655067999999999984e+03 1.654352000000000089e+03 1.653640000000000100e+03 1.652921000000000049e+03 1.652079999999999927e+03 1.651317999999999984e+03 1.650558999999999969e+03 1.649832000000000107e+03 1.649232999999999947e+03 1.648624000000000024e+03 1.648013999999999896e+03 1.647314000000000078e+03 1.646096999999999980e+03 1.645066000000000031e+03 1.644368999999999915e+03 1.643818999999999960e+03 1.643261999999999944e+03 1.643058999999999969e+03
1.695900000000000091e+03 1.696181000000000040e+03 1.696353000000000065e+03 1.696680000000000064e+03 1.696935999999999922e+03 1.697144999999999982e+03 1.697284000000000106e+03 1.697260999999999967e+03 1.697489000000000033e+03 1.697694999999999936e+03 1.697785000000000082e+03 1.697883000000000038e+03 1.697751999999999953e+03 1.697615000000000009e+03 1.697526000000000067e+03 1.697420000000000073e+03 1.697259000000000015e+03 1.696846000000000004e+03 1.696510999999999967e+03 1.696317999999999984e+03 1.695866999999999962e+03 1.695394000000000005e+03 1.694911000000000058e+03 1.694334000000000060e+03 1.693673000000000002e+03 1.693006000000000085e+03 1.692362000000000080e+03 1.691784000000000106e+03 1.691204999999999927e+03 1.690621000000000095e+03 1.690021999999999935e+03 1.689271999999999935e+03 1.688498000000000047e+03 1.687951999999999998e+03 1.687685999999999922e+03 1.687182999999999993e+03 1.686240999999999985e+03 1.685386999999999944e+03 1.684644000000000005e+03 1.683901000000000067e+03 1.683157999999999902e+03 1.682321999999999889e+03 1.681272999999999911e+03 1.680851000000000113e+03 1.680162000000000035e+03 1.679424999999999955e+03 1.678728000000000065e+03 1.677969000000000051e+03 1.676970000000000027e+03 1.675887999999999920e+03 1.674931000000000040e+03 1.674094000000000051e+03 1.673319999999999936e+03 1.672549999999999955e+03 1.671948000000000093e+03 1.671400000000000091e+03 1.670602000000000089e+03 1.669835000000000036e+03 1.669017000000000053e+03 1.668300999999999931e+03 1.667653000000000020e+03 1.666969000000000051e+03 1.666305000000000064e+03 1.665570999999999913e+03 1.664681000000000040e+03 1.663932999999999993e+03 1.663200000000000045e+03 1.662386999999999944e+03 1.661423999999999978e+03 1.660809999999999945e+03 1.660461999999999989e+03 1.659604000000000042e+03 1.658846000000000004e+03 1.658067999999999984e+03 1.657258000000000038e+03 1.656463999999999942e+03 1.655719000000000051e+03 1.655000999999999976e+03 1.654280999999999949e+03 1.653560999999999922e+03 1.652840999999999894e+03 1.652125000000000000e+03 1.651361000000000104e+03 1.650611000000000104e+03 1.649821999999999889e+03 1.649006000000000085e+03 1.648432000000000016e+03 1.647817999999999984e+03 1.646805000000000064e+03 1.645781999999999925e+03 1.645115999999999985e+03 1.644619999999999891e+03 1.644000000000000000e+03 1.643380000000000109e+03 1.643045000000000073e+03
