ncols         99
nrows         87
xllcorner     429609
yllcorner     4568204
cellsize      1
NODATA_value  -9999
-9999 -9999 -9999 -9999 -9999 -9999 -9999 -9999 -9999 -9999 -9999 -9999 -9999 -9999 1708.698 1707.828 1706.958 1706.125 1705.292 1704.629 1703.94 1703.223 1702.506 1701.789 1701.085 1700.474 1699.727 1698.924 1698.28 1697.663 1697.047 1696.431 1695.721 1695.012 1694.303 1693.594 1692.885 1692.176 1691.376 1690.57 1689.749 1688.931 1688.112 1687.303 1686.595 1686.103 1685.454 1684.806 1684.157 1683.508 1682.752 1681.726 1680.952 1681.049 1680.261 1678.742 1677.983 1677.276 1676.643 1676.026 1675.408 1674.79 1674.173 1673.555 1672.938 1672.32 1671.703 1671.085 1670.44 1669.792 1669.145 1668.497 1667.85 1667.202 1666.555 1665.907 1665.26 1664.613 1663.965 1663.318 1662.67 1662.023 1661.375 1660.728 1660.079 1659.422 1658.789 1658.268 1657.75 1657.233 1656.738 1656.645 -9999 -9999 -9999 -9999 -9999 -9999 -9999 
-9999 -9999 -9999 -9999 1715.409 1714.629 1713.837 1713.162 1712.702 1712.245 1711.602 1710.735 1710.029 1709.3 1708.495 1707.69 1706.884 1705.986 1704.975 1704.152 1703.372 1702.575 1701.934 1701.447 1700.91 1700.212 1699.288 1698.479 1697.741 1697.074 1696.31 1695.519 1694.776 1694.136 1693.401 1693.002 1692.119 1691.225 1690.466 1689.674 1689.112 1688.343 1687.599 1687.156 1686.714 1686.01 1685.302 1684.906 1684.206 1683.198 1682.18 1681.206 1680.685 1680.132 1679.547 1678.752 1677.845 1676.946 1676.503 1675.766 1674.967 1674.319 1673.644 1672.901 1672.255 1671.622 1670.963 1670.309 1669.655 1669.009 1668.38 1667.751 1667.122 1666.493 1665.864 1665.267 1664.86 1664.093 1663.569 1663.131 1662.554 1662.583 1661.88 1661.131 1660.035 1659.127 1658.366 1657.806 1657.289 1656.906 1656.715 1656.561 1656.536 1656.804 -9999 -9999 -9999 -9999 -9999 
-9999 -9999 -9999 -9999 1715.334 1714.558 1713.762 1712.953 1712.392 1711.886 1711.33 1710.624 1709.918 1709.226 1708.421 1707.616 1706.74 1705.775 1704.862 1703.849 1702.927 1702.35 1701.795 1701.3 1700.768 1700.002 1699.117 1698.445 1697.774 1697.055 1696.152 1695.312 1694.569 1693.97 1693.405 1692.41 1691.96 1691.094 1690.055 1689.391 1688.798 1688.069 1687.372 1686.991 1686.526 1685.866 1685.207 1684.524 1683.779 1682.763 1681.746 1681.157 1681.038 1680.023 1679.302 1678.785 1677.832 1677.036 1676.589 1675.583 1674.731 1674.088 1673.417 1672.71 1672.004 1671.376 1670.707 1670.033 1669.376 1668.723 1668.069 1667.415 1666.765 1666.188 1665.59 1665.136 1664.623 1663.865 1663.405 1663.026 1662.849 1662.488 1661.831 1660.886 1659.877 1658.809 1658.078 1657.563 1657.163 1656.862 1656.613 1656.415 1656.374 1656.437 1657.114 1657.876 -9999 -9999 -9999 
-9999 -9999 -9999 1715.334 1715.259 1714.481 1713.685 1712.897 1712.209 1711.656 1711.155 1710.514 1709.808 1709.121 1708.348 1707.542 1706.561 1705.565 1704.807 1703.724 1702.755 1702.279 1701.824 1701.303 1700.557 1699.814 1699.051 1698.223 1697.444 1696.666 1695.869 1695.051 1694.358 1693.803 1693.348 1692.018 1691.45 1690.638 1689.812 1689.266 1688.678 1687.955 1687.198 1686.709 1686.307 1685.715 1684.85 1684.03 1683.28 1682.454 1681.462 1681.285 1681.005 1680.139 1678.564 1678.234 1677.781 1677.028 1676.317 1675.23 1674.462 1673.782 1673.102 1672.409 1671.76 1671.117 1670.464 1669.791 1669.118 1668.444 1667.79 1667.146 1666.548 1665.952 1665.314 1664.834 1664.298 1663.633 1663.074 1662.605 1662.354 1661.718 1660.969 1660.306 1659.32 1658.335 1657.73 1657.422 1657.066 1656.726 1656.458 1656.312 1656.233 1656.303 1656.67 1657.403 1658.12 1658.96 -9999 
-9999 -9999 -9999 1715.858 1715.094 1714.322 1713.588 1712.832 1712.016 1711.437 1710.95 1710.371 1709.697 1709.013 1708.274 1707.421 1706.381 1705.354 1704.701 1703.669 1702.659 1702.244 1701.839 1701.112 1700.393 1699.674 1698.922 1698.086 1697.251 1696.415 1695.579 1694.958 1694.333 1693.472 1692.716 1691.737 1691.219 1690.648 1689.616 1688.973 1688.519 1687.843 1686.96 1686.266 1686.03 1685.482 1684.483 1683.77 1682.919 1682.069 1681.384 1680.901 1680.744 1680.484 1679.002 1677.938 1677.216 1676.476 1675.642 1674.877 1674.147 1673.467 1672.835 1672.234 1671.537 1670.844 1670.137 1669.468 1668.814 1668.186 1667.558 1666.99 1666.408 1665.791 1665.197 1664.654 1663.951 1663.285 1662.672 1662.184 1661.773 1661.024 1660.275 1659.526 1658.771 1657.938 1657.743 1657.417 1656.979 1656.549 1656.283 1656.137 1656.05 1656.251 1656.429 1656.99 1657.623 1658.644 -9999 
-9999 -9999 1715.146 1715.559 1714.701 1713.895 1713.162 1712.522 1711.825 1711.27 1710.744 1710.165 1709.586 1708.905 1708.2 1707.242 1706.201 1705.161 1704.491 1703.648 1702.655 1702.154 1701.63 1700.963 1700.253 1699.534 1698.792 1697.956 1697.121 1696.401 1695.855 1695.144 1694.262 1693.406 1692.429 1691.687 1690.934 1690.166 1689.289 1688.7 1688.228 1687.594 1686.699 1685.823 1685.498 1684.819 1684.218 1683.51 1682.659 1681.79 1680.938 1680.623 1680.473 1679.989 1678.336 1677.214 1676.534 1675.875 1675.238 1674.616 1673.881 1673.613 1673.008 1672.332 1671.388 1670.576 1669.868 1669.246 1668.656 1668.028 1667.403 1666.836 1666.26 1665.632 1665.012 1664.384 1663.656 1662.947 1662.365 1661.835 1661.294 1660.582 1659.952 1659.267 1658.458 1657.947 1657.725 1657.33 1656.891 1656.453 1656.108 1655.994 1655.9 1655.94 1656.232 1656.625 1657.277 1658.437 -9999 
-9999 -9999 1715.229 1714.968 1714.286 1713.468 1712.809 1712.232 1711.672 1711.121 1710.539 1709.84 1709.336 1708.81 1708.097 1707.059 1706.02 1704.981 1704.476 1703.72 1702.298 1702.102 1701.502 1700.677 1700.044 1699.394 1698.662 1697.827 1697.22 1696.457 1695.694 1694.892 1693.943 1692.995 1692.148 1691.345 1690.586 1689.82 1689.142 1688.511 1687.961 1687.307 1686.358 1685.556 1684.828 1684.188 1683.747 1683.246 1682.375 1681.503 1680.631 1680.247 1679.707 1679.123 1677.704 1676.859 1676.259 1675.594 1674.92 1674.292 1673.838 1673.57 1673.266 1672.256 1670.975 1670.296 1669.648 1669 1668.401 1667.824 1667.253 1666.699 1666.13 1665.391 1664.683 1664.036 1663.331 1662.666 1662.063 1661.532 1660.969 1660.11 1659.48 1658.828 1658.206 1657.981 1657.592 1656.913 1656.489 1656.127 1655.611 1655.359 1655.361 1655.656 1655.985 1656.376 1657.131 1658.237 -9999 
-9999 -9999 1714.568 1714.323 1713.819 1713.154 1712.647 1712.11 1711.524 1711.043 1710.44 1709.573 1708.98 1708.536 1707.893 1706.864 1705.845 1704.827 1704.185 1703.243 1702.314 1701.96 1701.393 1700.393 1699.758 1699.126 1698.554 1697.736 1696.973 1696.21 1695.447 1694.639 1693.691 1692.796 1691.929 1691.115 1690.34 1689.646 1688.986 1688.324 1687.73 1687.196 1686.459 1685.486 1684.622 1684.015 1683.314 1682.64 1681.827 1681.014 1680.358 1679.585 1678.912 1678.176 1677.43 1676.695 1676.469 1675.563 1674.647 1674.019 1673.348 1673.092 1672.853 1671.801 1670.724 1670.076 1669.428 1668.78 1668.133 1667.556 1667.072 1666.586 1665.932 1665.192 1664.452 1663.723 1663.048 1662.389 1661.761 1661.221 1660.643 1659.855 1659.007 1658.344 1658.157 1657.834 1657.251 1656.782 1656.008 1655.376 1654.814 1654.818 1654.982 1655.341 1655.763 1656.207 1656.949 1658.177 -9999 
-9999 1714.362 1714.108 1713.768 1713.4 1712.896 1712.393 1711.889 1711.36 1710.887 1710.355 1709.524 1708.69 1708.114 1707.636 1706.675 1705.695 1704.724 1704.081 1703.286 1702.496 1701.834 1701.124 1700.26 1699.565 1698.989 1698.445 1697.878 1696.859 1695.963 1695.2 1694.387 1693.472 1692.598 1691.724 1690.909 1690.193 1689.466 1688.739 1688.075 1687.504 1687.037 1686.44 1685.698 1684.58 1683.845 1683.057 1682.333 1681.793 1681.151 1680.221 1679.369 1678.665 1677.94 1677.211 1676.353 1676.678 1675.744 1674.812 1673.88 1673.186 1672.43 1672.167 1671.094 1670.483 1669.86 1669.21 1668.56 1667.912 1667.288 1666.85 1666.473 1665.73 1664.973 1664.215 1663.487 1662.795 1662.115 1661.459 1660.895 1660.316 1659.643 1658.626 1658.326 1658.061 1657.59 1656.919 1656.501 1655.698 1655.039 1654.564 1654.307 1654.672 1655.054 1655.688 1656.113 1656.782 1658.034 -9999 
-9999 1713.915 1713.801 1713.619 1713.162 1712.63 1712.145 1711.641 1711.132 1710.609 1710.114 1709.428 1708.522 1707.973 1707.337 1706.161 1705.244 1704.621 1703.861 1702.955 1702.324 1701.685 1701.119 1700.27 1699.507 1698.904 1698.336 1697.769 1697.164 1696.112 1695.06 1694.148 1693.28 1692.43 1691.579 1690.827 1690.145 1689.351 1688.544 1687.825 1687.298 1686.839 1686.332 1685.329 1684.525 1683.783 1683.026 1682.236 1681.72 1681.075 1679.996 1679.153 1678.449 1677.744 1676.974 1676.471 1676.549 1675.686 1674.793 1673.9 1673.007 1672.174 1671.571 1670.853 1670.242 1669.631 1668.995 1668.345 1667.694 1667.044 1666.627 1666.393 1665.489 1664.732 1663.974 1663.251 1662.519 1661.832 1661.146 1660.46 1659.805 1659.211 1658.503 1658.289 1657.796 1657.149 1656.473 1655.901 1655.252 1654.624 1654.149 1654.042 1654.401 1654.948 1655.668 1656.071 1656.794 1657.765 -9999 
-9999 1713.58 1713.522 1713.426 1712.932 1712.317 1711.852 1711.393 1710.88 1710.378 1709.836 1709.246 1708.328 1707.701 1707.037 1705.938 1705.131 1704.512 1703.602 1702.606 1702.15 1701.824 1701.146 1700.344 1699.507 1698.772 1698.217 1697.66 1697.093 1696.417 1695.826 1693.952 1693.167 1692.372 1691.549 1690.789 1690.041 1689.235 1688.426 1687.635 1687.088 1686.661 1686.226 1685.345 1684.41 1683.711 1682.994 1682.196 1681.633 1681.358 1679.851 1678.937 1678.232 1677.526 1676.965 1676.613 1675.983 1675.176 1674.283 1673.39 1672.597 1671.858 1671.224 1670.689 1670.001 1669.39 1668.779 1668.13 1667.48 1666.887 1666.404 1666.184 1665.606 1664.64 1663.733 1662.936 1662.169 1661.502 1660.771 1660.034 1659.291 1658.824 1658.548 1658.137 1657.436 1656.727 1656.06 1655.393 1654.807 1654.226 1654.206 1654.031 1654.164 1654.732 1655.349 1655.964 1656.796 1657.497 -9999 
-9999 1713.262 1713.2 1713.058 1712.689 1712.097 1711.54 1711.141 1710.609 1710.092 1709.604 1708.865 1708.091 1707.4 1706.736 1705.801 1705.016 1704.311 1703.433 1702.596 1702.153 1701.649 1700.859 1700.069 1699.345 1698.676 1698.172 1697.597 1696.925 1695.772 1694.438 1693.753 1692.912 1692.155 1691.388 1690.635 1689.92 1689.111 1688.311 1687.545 1686.779 1686.336 1686.032 1685.192 1684.335 1683.65 1682.85 1681.728 1681.223 1681.097 1679.636 1678.819 1678.074 1677.329 1676.865 1676.11 1675.417 1674.667 1673.774 1672.97 1672.264 1671.578 1671.125 1670.839 1670.067 1669.295 1668.537 1667.915 1667.324 1666.791 1666.258 1666.015 1665.74 1664.71 1663.506 1662.624 1661.875 1661.133 1660.398 1659.698 1659.02 1658.602 1658.361 1657.708 1656.994 1656.313 1655.646 1655.015 1654.357 1654.199 1654.199 1654.029 1653.942 1654.552 1655.166 1655.784 1656.485 1657.294 -9999 
-9999 1712.888 1712.814 1712.724 1712.688 1712.169 1711.485 1710.892 1710.353 1709.821 1709.383 1708.572 1707.894 1707.211 1706.493 1705.709 1704.886 1704.029 1703.186 1702.343 1701.986 1701.419 1700.714 1700.02 1699.325 1698.623 1697.936 1697.263 1696.695 1695.386 1694.535 1693.85 1692.796 1691.976 1691.215 1690.391 1689.724 1688.988 1688.218 1687.434 1686.651 1686.089 1685.723 1685.08 1684.239 1683.338 1682.294 1681.389 1680.838 1680.155 1679.432 1678.771 1678.398 1677.893 1676.672 1675.689 1674.906 1674.157 1673.367 1672.681 1671.994 1671.327 1670.913 1670.443 1669.581 1668.872 1668.216 1667.607 1666.98 1666.394 1666.022 1665.824 1665.412 1664.255 1663.051 1662.259 1661.54 1660.783 1660.03 1659.366 1658.912 1658.502 1657.928 1657.23 1656.747 1656.158 1655.476 1654.771 1654.065 1653.55 1652.989 1653.07 1653.512 1654.309 1655.07 1655.766 1656.442 1657.215 -9999 
-9999 1712.305 1712.298 1712.515 1712.088 1711.626 1711.164 1710.665 1710.086 1709.553 1709.128 1708.754 1708.008 1707.059 1706.3 1705.535 1704.756 1703.907 1703.055 1702.204 1701.911 1701.214 1700.443 1699.735 1699.038 1698.327 1697.624 1696.907 1696.393 1695.503 1694.697 1693.877 1692.689 1691.826 1691.041 1690.227 1689.484 1688.787 1688.077 1687.293 1686.517 1685.916 1685.477 1684.791 1684.037 1683.126 1682.17 1681.176 1680.751 1680.061 1679.503 1678.306 1677.336 1676.991 1676.07 1675.52 1674.761 1673.859 1673.177 1672.511 1671.845 1671.178 1670.543 1670.017 1669.083 1668.63 1667.974 1667.22 1666.601 1665.983 1665.787 1665.263 1664.471 1663.554 1662.646 1661.914 1661.195 1660.45 1659.724 1659.005 1658.864 1658.274 1657.574 1656.921 1656.445 1655.819 1655.177 1654.472 1653.766 1653.061 1652.708 1652.682 1653.328 1654.11 1654.937 1655.835 1656.504 1657.136 -9999 
-9999 1711.848 1711.793 1712.002 1711.444 1710.982 1710.614 1710.307 1709.875 1709.356 1708.971 1708.481 1707.787 1706.891 1706.242 1705.422 1704.577 1703.753 1702.926 1702.084 1701.806 1701.38 1700.501 1699.621 1698.804 1698.146 1697.627 1697.052 1696.041 1695.523 1694.631 1693.641 1692.582 1691.702 1690.904 1690.142 1689.399 1688.655 1687.912 1687.155 1686.383 1685.744 1685.167 1684.48 1683.794 1682.941 1681.979 1681.09 1680.469 1680.121 1679.692 1678.808 1678.455 1677.171 1676.508 1675.568 1674.566 1673.724 1673.082 1672.388 1671.697 1671.015 1670.302 1669.615 1669.044 1668.363 1667.556 1666.85 1666.231 1665.853 1665.523 1664.824 1663.814 1663.129 1662.364 1661.758 1661.018 1660.161 1659.434 1658.888 1658.518 1657.955 1657.234 1656.566 1655.939 1655.313 1654.687 1654.069 1653.453 1652.756 1652.344 1652.38 1653.143 1653.908 1654.749 1655.647 1656.097 1656.73 -9999 
-9999 1711.407 1711.327 1711.235 1711.004 1710.707 1710.398 1710.077 1709.642 1709.131 1708.712 1708.38 1707.649 1706.749 1706.085 1705.203 1704.379 1703.555 1702.772 1702.019 1701.648 1701.401 1700.868 1699.928 1699.12 1698.197 1697.312 1696.584 1695.846 1695.109 1694.177 1693.192 1692.36 1691.582 1690.799 1690.056 1689.309 1688.55 1687.79 1687.025 1686.25 1685.544 1684.857 1684.181 1683.522 1682.881 1682.043 1681.071 1680.097 1679.915 1679.754 1679.496 1678.76 1677.587 1676.635 1675.533 1674.432 1673.604 1672.991 1672.297 1671.567 1670.862 1670.148 1669.51 1668.857 1668.138 1667.341 1666.655 1666.287 1665.89 1665.029 1664.145 1663.459 1662.774 1662.083 1661.398 1660.881 1659.98 1659.247 1658.98 1658.329 1657.63 1656.949 1656.312 1655.601 1654.891 1654.182 1653.556 1652.934 1652.319 1651.823 1652.387 1653.053 1653.722 1654.544 1655.467 1655.816 1656.653 -9999 
-9999 1710.96 1710.834 1710.848 1710.801 1710.49 1710.169 1709.848 1709.41 1708.913 1708.367 1707.838 1707.276 1706.681 1705.86 1705.02 1704.235 1703.447 1702.659 1701.872 1701.555 1701.082 1700.507 1699.926 1699.1 1698.069 1697.284 1696.362 1695.439 1694.617 1693.75 1692.987 1692.223 1691.459 1690.699 1689.94 1689.18 1688.421 1687.661 1686.894 1686.119 1685.346 1684.651 1684.023 1683.411 1682.852 1682.142 1681.05 1679.927 1679.387 1679.083 1678.792 1678.254 1677.475 1676.3 1675.378 1674.321 1673.823 1673.061 1672.115 1671.422 1670.713 1669.974 1669.227 1668.722 1667.953 1667.139 1666.574 1665.981 1665.326 1664.553 1663.859 1663.136 1662.42 1661.735 1661.037 1660.268 1659.529 1659.111 1658.85 1658.078 1657.364 1656.649 1655.977 1655.278 1654.579 1653.88 1653.19 1652.5 1651.945 1651.516 1652.146 1652.927 1653.708 1654.514 1655.202 1655.621 1656.295 -9999 
-9999 1710.514 1710.396 1710.312 1710.256 1710.147 1709.923 1709.618 1709.19 1708.698 1708.126 1707.555 1706.998 1706.237 1705.586 1704.984 1704.112 1703.318 1702.523 1701.757 1701.467 1701.009 1700.393 1699.708 1698.817 1698.084 1697.262 1696.339 1695.416 1694.496 1693.657 1692.895 1692.136 1691.376 1690.795 1689.941 1689.087 1688.292 1687.532 1686.764 1686.013 1685.237 1684.392 1683.761 1683.293 1682.852 1682.056 1680.948 1679.825 1679.026 1678.729 1678.311 1677.332 1676.545 1675.511 1674.835 1674.209 1673.826 1673.191 1672.094 1671.178 1670.629 1670.206 1668.991 1668.272 1667.585 1666.937 1666.221 1665.504 1664.839 1664.322 1663.659 1662.937 1662.214 1661.492 1660.804 1659.876 1659.348 1659.038 1658.585 1657.76 1657.004 1656.267 1656.097 1654.971 1654.281 1653.591 1652.903 1652.271 1651.624 1651.381 1651.9 1652.813 1653.726 1654.277 1654.812 1655.287 1655.941 -9999 
-9999 1710.039 1709.982 1709.933 1709.986 1710.035 1709.628 1709.437 1709.105 1708.545 1707.937 1707.336 1706.707 1706.064 1705.443 1704.931 1704.139 1703.218 1702.429 1701.819 1701.396 1700.843 1700.147 1699.461 1698.8 1698.159 1697.239 1696.317 1695.397 1694.478 1693.607 1692.822 1692.055 1691.295 1690.745 1690.136 1689.282 1688.427 1687.573 1686.654 1685.908 1685.129 1684.284 1683.499 1683.153 1682.852 1681.916 1680.812 1679.707 1678.666 1678.215 1677.585 1676.581 1675.789 1675.246 1674.855 1674.499 1673.988 1673.119 1672.055 1670.941 1670.635 1670.429 1669.51 1668.233 1667.445 1666.757 1666.034 1665.293 1664.768 1664.113 1663.447 1662.746 1662.021 1661.278 1660.501 1659.574 1659.238 1658.798 1658.216 1657.517 1656.647 1656.088 1656.013 1655.103 1653.991 1653.328 1652.696 1652.064 1651.416 1650.979 1651.651 1652.342 1653.039 1653.917 1654.791 1655.212 1655.608 -9999 
-9999 1709.503 1709.551 1709.553 1709.632 1709.659 1709.319 1709.457 1709.164 1708.546 1707.929 1707.312 1706.605 1705.898 1705.318 1704.806 1704.215 1703.271 1702.299 1701.636 1701.408 1700.734 1699.995 1699.364 1698.843 1698.139 1697.219 1696.299 1695.38 1694.46 1693.557 1692.772 1691.988 1691.214 1690.622 1690.173 1689.476 1688.622 1687.631 1686.589 1685.775 1684.998 1684.216 1683.498 1683.03 1682.83 1681.786 1680.686 1679.586 1678.768 1678.201 1677.133 1676.356 1675.592 1674.933 1674.809 1674.126 1673.379 1672.853 1671.88 1670.77 1670.097 1670.134 1669.713 1668.49 1667.292 1666.539 1665.798 1665.335 1664.704 1663.993 1663.307 1662.479 1661.697 1660.915 1660.099 1659.3 1659.017 1658.542 1657.935 1657.314 1656.605 1655.845 1655.659 1655.172 1654.037 1653.279 1652.52 1651.857 1651.207 1650.83 1651.481 1652.227 1652.933 1653.673 1654.465 1655.104 1655.507 -9999 
-9999 1709.002 1709.078 1709.13 1709.242 1709.209 1708.96 1709.083 1708.871 1708.344 1707.694 1707.043 1706.399 1705.732 1705.193 1704.675 1704.003 1703.248 1702.333 1701.46 1701.267 1700.721 1699.933 1699.174 1698.627 1697.968 1697.168 1696.281 1695.362 1694.442 1693.522 1692.722 1691.937 1691.153 1690.501 1690.05 1689.601 1688.72 1687.658 1686.596 1685.613 1684.858 1684.183 1683.559 1682.848 1682.534 1681.737 1680.351 1679.742 1680.097 1678.856 1677.014 1676.234 1675.472 1675.148 1674.507 1673.649 1672.732 1672.289 1671.556 1670.861 1670.004 1669.975 1669.289 1667.985 1667.13 1666.303 1665.764 1665.3 1664.589 1663.878 1663.154 1662.262 1661.48 1660.646 1659.921 1659.349 1658.941 1658.363 1657.671 1657.076 1656.566 1655.98 1655.352 1654.691 1654.074 1653.143 1652.375 1651.588 1650.969 1650.581 1651.39 1652.118 1652.843 1653.594 1654.328 1654.926 1655.366 -9999 
-9999 1708.559 1708.617 1708.71 1708.732 1708.649 1708.601 1708.513 1708.235 1707.721 1707.206 1706.692 1706.103 1705.583 1704.968 1704.295 1703.623 1702.95 1702.157 1701.429 1701.167 1700.67 1699.858 1699.021 1698.321 1697.661 1696.861 1696.06 1695.26 1694.424 1693.504 1692.672 1691.876 1691.048 1690.396 1689.944 1689.445 1689.141 1688.188 1686.849 1685.518 1685.093 1684.218 1683.443 1682.736 1682.191 1681.795 1680.307 1679.804 1679.592 1679.709 1677.561 1676.263 1675.672 1675.243 1674.218 1673.384 1672.553 1672.081 1671.77 1671.121 1669.861 1669.754 1668.61 1667.85 1666.995 1666.179 1665.765 1665.082 1664.341 1663.627 1662.977 1662.077 1661.237 1660.418 1659.615 1659.265 1658.825 1658.096 1657.433 1656.776 1656.162 1655.583 1655.03 1654.56 1653.887 1652.794 1651.996 1651.195 1650.393 1650.458 1651.301 1652.122 1652.909 1653.398 1653.908 1654.506 1655.028 -9999 
-9999 1708.191 1708.252 1708.335 1708.379 1708.331 1708.184 1708.02 1707.771 1707.297 1706.819 1706.445 1705.852 1705.363 1704.746 1704.025 1703.304 1702.583 1701.891 1701.379 1701.209 1700.54 1699.73 1698.92 1698.109 1697.354 1696.554 1695.753 1694.96 1694.188 1693.41 1692.591 1691.761 1690.932 1690.263 1689.761 1689.259 1688.931 1688.753 1688.092 1686.847 1685.857 1684.242 1683.323 1682.623 1682.079 1681.524 1680.679 1679.658 1678.748 1679.329 1678.365 1676.117 1675.798 1675.408 1673.956 1673.244 1672.465 1672.11 1671.806 1671.119 1669.718 1669.086 1668.467 1667.738 1666.883 1666.171 1665.561 1664.652 1664.007 1663.395 1662.715 1661.934 1661.159 1660.142 1659.601 1659.177 1658.463 1657.817 1657.172 1656.46 1655.766 1654.937 1654.233 1653.835 1653.3 1652.332 1651.526 1650.745 1649.964 1650.324 1651.078 1651.806 1652.526 1653.129 1653.472 1654.114 1654.742 -9999 
-9999 1707.684 1707.867 1707.958 1708 1708.031 1707.828 1707.665 1707.447 1707.05 1706.732 1706.297 1705.682 1705.157 1704.587 1703.866 1703.145 1702.453 1701.75 1701.143 1701.022 1700.37 1699.583 1698.797 1698.011 1697.298 1696.521 1695.733 1694.946 1694.158 1693.371 1692.526 1691.669 1690.876 1690.146 1689.575 1689.074 1688.721 1688.543 1688.316 1687.192 1686.116 1684.404 1683.347 1682.429 1681.756 1681.178 1680.308 1679.403 1678.59 1678.763 1677.301 1676.291 1676.85 1675.507 1674.352 1673.118 1672.391 1672.06 1671.197 1670.341 1669.592 1668.942 1668.323 1667.599 1666.843 1666.038 1665.249 1664.456 1663.75 1663.169 1662.388 1661.735 1661.043 1659.975 1659.483 1659.284 1658.298 1657.571 1656.914 1656.185 1655.33 1654.514 1653.897 1653.423 1652.673 1651.882 1651.01 1650.234 1649.821 1649.888 1650.708 1651.519 1652.262 1652.829 1653.23 1653.819 1654.242 -9999 
-9999 1707.165 1707.45 1707.559 1707.429 1707.452 1707.487 1707.396 1707.144 1706.853 1706.622 1706.335 1705.441 1704.96 1704.428 1703.707 1703.096 1702.386 1701.646 1701.105 1700.923 1700.212 1699.481 1698.728 1697.941 1697.223 1696.479 1695.694 1694.906 1694.119 1693.331 1692.486 1691.603 1690.864 1690.136 1689.408 1688.888 1688.511 1688.334 1687.468 1686.261 1685.22 1684.196 1683.114 1682.325 1681.535 1680.858 1679.992 1679.091 1678.442 1677.946 1676.967 1677.304 1677.666 1675.541 1674.386 1673.023 1672.314 1671.646 1671.138 1670.55 1669.646 1668.833 1668.178 1668.271 1666.582 1665.82 1665.039 1664.257 1663.537 1662.884 1662.234 1661.584 1660.683 1659.842 1659.385 1659.07 1657.968 1657.314 1656.748 1655.941 1655.105 1654.431 1653.741 1652.968 1652.135 1651.301 1650.507 1649.907 1649.475 1649.522 1650.368 1651.172 1651.807 1652.39 1652.938 1653.478 1653.903 -9999 
-9999 1706.645 1706.967 1707.098 1707.033 1706.996 1707.079 1706.859 1706.676 1706.428 1706.191 1705.865 1705.292 1704.81 1704.322 1703.739 1703.023 1702.282 1701.542 1701.14 1700.73 1700.03 1699.315 1698.6 1697.851 1697.116 1696.372 1695.628 1694.867 1694.079 1693.292 1692.447 1691.524 1690.842 1690.126 1689.398 1688.702 1688.301 1687.738 1686.731 1685.724 1684.994 1684.033 1683.026 1682.243 1681.46 1680.674 1679.81 1678.978 1678.441 1678.095 1676.878 1677.36 1677.328 1675.575 1673.792 1672.928 1672.237 1671.708 1671.123 1670.942 1670.169 1668.638 1668.868 1668.421 1666.563 1665.799 1665.033 1664.251 1663.497 1662.798 1662.116 1661.434 1660.419 1659.653 1659.397 1658.739 1657.711 1657.197 1656.54 1655.732 1654.97 1654.242 1653.563 1652.663 1651.839 1651.016 1650.233 1649.543 1648.952 1649.369 1650.008 1650.717 1651.404 1651.959 1652.575 1653.229 1653.853 -9999 
-9999 1706.221 1706.676 1706.543 1706.603 1706.551 1706.482 1706.401 1706.235 1706.096 1705.794 1705.451 1705.098 1704.836 1704.33 1703.753 1703.1 1702.382 1701.565 1700.818 1700.533 1699.977 1699.229 1698.479 1697.72 1696.981 1696.246 1695.512 1694.776 1694.032 1693.252 1692.406 1691.48 1690.76 1690.049 1689.351 1688.652 1688.008 1687.076 1686.227 1685.498 1684.768 1683.846 1683.308 1682.643 1681.813 1680.773 1679.848 1678.962 1678.174 1677.679 1676.626 1677.056 1676.737 1675.174 1673.541 1672.859 1672.193 1671.681 1671.168 1670.841 1670.574 1669.061 1667.98 1667.95 1666.54 1665.777 1665.013 1664.244 1663.485 1662.71 1662.012 1661.303 1660.453 1659.662 1659.375 1658.644 1657.692 1657.129 1656.343 1655.593 1654.843 1654.123 1653.705 1652.604 1651.564 1650.793 1650.028 1649.265 1648.645 1649.036 1649.849 1650.524 1651.01 1651.667 1652.348 1653.029 1653.836 -9999 
-9999 1705.676 1705.899 1706.059 1706.181 1706.138 1706.224 1706.134 1705.989 1705.894 1705.69 1705.236 1704.852 1704.589 1704.147 1703.538 1702.937 1702.267 1701.481 1700.754 1700.397 1699.832 1699.107 1698.348 1697.59 1696.846 1696.111 1695.377 1694.642 1693.907 1693.179 1692.398 1691.492 1690.81 1690.154 1689.442 1688.731 1687.821 1686.942 1686.053 1685.29 1684.542 1683.827 1683.407 1682.891 1682.017 1680.824 1679.794 1678.884 1678.045 1677.179 1676.462 1676.355 1675.003 1674.268 1673.502 1672.815 1672.104 1671.525 1670.975 1670.371 1670.413 1668.907 1668.079 1667.213 1666.541 1665.777 1665.012 1664.247 1663.473 1662.678 1661.903 1661.156 1659.997 1659.596 1659.244 1658.657 1657.823 1656.991 1656.257 1655.522 1654.633 1653.753 1653.473 1652.784 1651.835 1650.904 1649.998 1649.014 1648.573 1648.701 1649.385 1649.965 1650.56 1651.319 1652 1652.68 1653.442 -9999 
-9999 1705.286 1705.421 1705.574 1705.654 1705.77 1705.809 1705.744 1705.696 1705.579 1705.396 1704.989 1704.571 1704.19 1703.812 1703.344 1702.798 1702.028 1701.129 1700.593 1700.232 1699.604 1698.856 1698.17 1697.481 1696.744 1696.045 1695.327 1694.609 1693.891 1693.239 1692.578 1691.66 1690.824 1690.188 1689.543 1688.625 1687.754 1686.899 1686.011 1685.126 1684.454 1683.833 1683.042 1682.522 1681.977 1680.252 1679.912 1678.932 1678.136 1677.554 1676.575 1676.099 1675.311 1674.506 1673.687 1672.774 1672.041 1671.308 1670.579 1670.207 1669.614 1668.637 1667.853 1667.077 1666.426 1665.776 1665.047 1664.282 1663.563 1662.76 1661.892 1661.099 1659.977 1659.583 1659.349 1658.537 1657.72 1656.974 1656.125 1655.276 1654.462 1653.585 1653.154 1652.242 1651.351 1650.622 1650.048 1648.977 1648.292 1648.124 1648.785 1649.448 1650.154 1651.031 1651.651 1652.338 1653.014 -9999 
-9999 1705.048 1704.944 1705.04 1705.203 1705.278 1705.326 1705.283 1705.323 1705.161 1704.906 1704.674 1704.394 1704.058 1703.679 1703.166 1702.635 1701.992 1701.132 1700.403 1700.201 1699.659 1698.911 1698.163 1697.433 1696.682 1695.951 1695.259 1694.566 1693.873 1693.236 1692.562 1691.793 1690.909 1690.062 1689.338 1688.508 1687.673 1686.838 1685.971 1685.119 1684.56 1683.979 1683.035 1682.157 1681.677 1680.29 1680.397 1679.246 1677.997 1677.366 1676.54 1676.209 1675.35 1674.475 1673.812 1672.737 1671.961 1671.333 1670.744 1670.223 1669.484 1668.499 1667.683 1666.932 1666.284 1665.637 1664.989 1664.317 1663.459 1662.61 1661.81 1660.896 1660.04 1659.56 1659.091 1658.307 1657.375 1656.81 1656.086 1655.273 1654.424 1653.508 1652.619 1651.812 1651.063 1650.362 1649.716 1648.991 1648.19 1647.786 1648.353 1649.006 1649.747 1650.749 1651.363 1651.963 1652.53 -9999 
-9999 1704.349 1704.552 1704.604 1704.822 1704.883 1704.872 1704.895 1704.95 1704.751 1704.643 1704.457 1704.142 1703.82 1703.396 1702.955 1702.477 1701.851 1701.071 1700.33 1700.085 1699.47 1698.779 1698.07 1697.333 1696.573 1695.897 1695.189 1694.456 1693.78 1693.137 1692.45 1691.751 1690.994 1690.23 1689.364 1688.474 1687.59 1686.707 1685.95 1685.144 1684.336 1684.085 1683.347 1682.238 1681.28 1680.281 1680.148 1679.861 1677.824 1676.989 1676.375 1675.633 1674.891 1674.299 1673.987 1672.886 1671.918 1671.287 1670.66 1670.051 1669.359 1668.658 1667.943 1667.171 1666.378 1665.417 1664.77 1664.106 1663.335 1662.54 1661.74 1660.721 1659.874 1659.542 1659.006 1658.278 1657.307 1656.712 1656.028 1655.251 1654.282 1653.315 1652.474 1651.889 1650.926 1650.121 1649.407 1648.715 1648.168 1648.07 1647.969 1648.607 1649.275 1650.227 1650.937 1651.515 1652.041 -9999 
-9999 1703.897 1704.079 1704.183 1704.348 1704.499 1704.537 1704.568 1704.589 1704.468 1704.35 1704.061 1703.774 1703.546 1703.184 1702.793 1702.343 1701.632 1700.82 1700.134 1700.034 1699.361 1698.676 1697.941 1697.24 1696.515 1695.936 1695.153 1694.366 1693.688 1693.036 1692.337 1691.639 1690.94 1690.177 1689.276 1688.374 1687.687 1686.603 1685.86 1685.109 1684.317 1683.861 1683.609 1682.497 1681.693 1680.226 1679.429 1679.09 1678.003 1677.21 1676.589 1675.413 1674.654 1674.304 1673.89 1673.16 1672.177 1671.195 1670.626 1670.134 1669.442 1668.732 1668.017 1667.218 1666.671 1665.997 1664.702 1663.924 1663.3 1662.664 1661.869 1660.796 1659.822 1659.54 1658.795 1657.979 1657.243 1656.495 1655.832 1655.066 1654.095 1653.485 1652.912 1652.055 1651.124 1650.092 1649.26 1648.508 1647.911 1647.782 1647.562 1648.288 1648.974 1649.671 1650.403 1650.953 1651.433 -9999 
-9999 1703.216 1703.466 1703.686 1703.89 1704.065 1704.189 1704.255 1704.21 1704.132 1703.972 1703.712 1703.536 1703.355 1702.989 1702.623 1702.214 1701.451 1700.623 1700.03 1699.822 1699.307 1698.547 1697.786 1697.1 1696.45 1695.748 1695.048 1694.277 1693.596 1692.923 1692.225 1691.529 1690.834 1690.009 1689.145 1688.243 1687.859 1686.787 1685.734 1684.997 1684.261 1683.602 1683.142 1682.577 1681.635 1680.148 1679.208 1678.74 1678.131 1677.088 1676.877 1675.951 1674.693 1674.366 1674.004 1673.499 1672.217 1671.205 1670.529 1670.057 1669.395 1668.671 1667.786 1667.007 1666.44 1665.955 1664.841 1664.017 1663.26 1662.787 1661.993 1660.548 1659.924 1659.411 1658.658 1657.922 1657.183 1656.433 1655.683 1654.885 1654.394 1653.902 1653.152 1652.11 1651.087 1650.091 1649.174 1648.347 1647.739 1647.344 1647.281 1647.975 1648.646 1649.303 1649.839 1650.155 1650.582 -9999 
-9999 1702.768 1702.964 1703.201 1703.362 1703.505 1703.687 1703.765 1703.786 1703.756 1703.705 1703.516 1703.294 1703.18 1703.03 1702.665 1702.002 1701.29 1700.538 1699.872 1699.623 1699.21 1698.433 1697.632 1696.962 1696.353 1695.601 1694.94 1694.191 1693.516 1692.815 1692.12 1691.425 1690.674 1689.826 1688.979 1688.339 1688.128 1687.104 1685.876 1684.864 1684.128 1683.404 1682.685 1681.965 1681.336 1680.27 1679.409 1678.547 1678.009 1677.13 1676.697 1676.359 1674.838 1674.2 1673.852 1673.109 1672.042 1671.239 1670.448 1669.877 1669.147 1668.738 1668.223 1666.7 1666.13 1665.691 1665.044 1664.136 1663.193 1662.297 1661.483 1660.372 1659.84 1659.291 1658.564 1657.865 1657.122 1656.372 1655.576 1654.71 1653.955 1653.259 1652.305 1651.52 1650.754 1649.973 1649.102 1648.232 1647.5 1646.902 1647.065 1647.557 1648.199 1648.838 1649.241 1649.686 1650.168 -9999 
-9999 1702.353 1702.51 1702.677 1702.828 1703.05 1703.176 1703.266 1703.334 1703.488 1703.363 1703.22 1703.041 1702.968 1702.925 1702.504 1701.791 1701.078 1700.366 1699.682 1699.401 1698.969 1698.413 1697.714 1696.98 1696.256 1695.674 1694.927 1694.085 1693.434 1692.725 1692.016 1691.321 1690.491 1689.643 1688.862 1688.189 1688.038 1687.478 1686.25 1685.023 1684.003 1683.287 1682.571 1681.855 1681.138 1680.53 1679.65 1678.771 1677.891 1677.951 1678.255 1676.222 1675.259 1674.034 1673.562 1672.658 1672.365 1671.544 1670.633 1669.933 1669.008 1668.397 1667.965 1666.594 1665.98 1665.314 1664.445 1663.625 1662.863 1662.182 1661.412 1660.203 1659.999 1659.199 1658.468 1657.807 1657.06 1656.214 1655.339 1654.464 1653.696 1652.948 1652.211 1651.434 1650.569 1649.865 1649.031 1648.13 1647.315 1646.764 1646.819 1647.352 1648.012 1648.458 1648.808 1649.253 1649.614 -9999 
-9999 1701.874 1702.001 1702.269 1702.527 1702.6 1702.634 1702.76 1702.858 1702.99 1702.936 1702.809 1702.659 1702.462 1702.413 1702.325 1701.672 1700.955 1700.24 1699.53 1699.259 1698.847 1698.259 1697.49 1696.755 1696.028 1695.364 1694.673 1693.976 1693.324 1692.631 1691.912 1691.156 1690.343 1689.57 1688.797 1688.023 1687.868 1686.939 1685.711 1685.071 1683.925 1683.189 1682.473 1681.757 1681.041 1680.555 1679.975 1679.096 1678.051 1677.475 1677.087 1675.828 1675.34 1673.841 1673.185 1672.709 1672.525 1671.794 1670.795 1670.187 1668.923 1668.13 1667.337 1666.544 1665.824 1665.132 1664.258 1663.747 1663.121 1662.34 1661.366 1660.234 1659.951 1659.132 1658.41 1657.738 1656.899 1656.061 1655.223 1654.398 1653.608 1652.855 1652.106 1651.348 1650.564 1649.831 1649.041 1648.088 1647.227 1646.637 1646.547 1647.175 1647.602 1648.006 1648.41 1648.814 1648.968 -9999 
-9999 1701.337 1701.647 1701.765 1701.862 1702.109 1702.188 1702.396 1702.481 1702.541 1702.544 1702.457 1702.342 1702.23 1702.134 1702.051 1701.549 1700.829 1700.1 1699.5 1699.06 1698.626 1698.079 1697.31 1696.541 1695.801 1695.174 1694.609 1693.863 1693.21 1692.559 1691.899 1691.051 1690.278 1689.505 1688.731 1687.958 1687.627 1686.399 1685.953 1684.963 1683.859 1683.116 1682.375 1681.659 1680.943 1680.327 1680.096 1679.421 1678.055 1677.388 1676.398 1675.563 1674.526 1673.831 1673.182 1672.617 1672.437 1671.79 1670.36 1669.639 1668.914 1668.12 1667.327 1666.677 1665.95 1665.082 1664.361 1663.736 1663.397 1662.46 1661.213 1660.17 1659.7 1659.035 1658.393 1657.744 1656.859 1655.988 1655.165 1654.356 1653.548 1652.778 1652.011 1651.258 1650.412 1649.794 1649.093 1648.075 1647.168 1646.539 1646.412 1646.466 1646.683 1647.236 1647.78 1648.232 1648.321 -9999 
-9999 1700.884 1701.057 1701.125 1701.28 1701.484 1701.713 1702.021 1702.033 1701.999 1702.064 1702.074 1701.96 1701.861 1701.904 1701.866 1701.25 1700.574 1699.918 1699.39 1698.938 1698.492 1697.871 1697.181 1696.412 1695.665 1695.089 1694.438 1693.749 1693.084 1692.52 1692.131 1690.823 1690.107 1689.39 1688.666 1687.892 1687.087 1686.835 1686.587 1684.561 1683.777 1683.05 1682.307 1681.564 1680.845 1680.129 1679.868 1679.334 1677.813 1677.226 1676.526 1675.223 1674.53 1673.838 1673.196 1672.519 1672.17 1671.799 1670.342 1669.557 1668.903 1668.109 1667.457 1666.812 1666.081 1665.061 1664.395 1663.675 1663.284 1662.295 1660.955 1660.25 1659.871 1659.012 1658.432 1657.751 1656.889 1656.039 1655.203 1654.375 1653.546 1652.77 1652.019 1651.234 1650.389 1649.662 1649.009 1648.079 1647.152 1646.43 1645.878 1645.911 1646.165 1646.72 1647.275 1647.597 1647.674 -9999 
-9999 1700.246 1700.414 1700.664 1700.814 1701.034 1701.19 1701.591 1701.485 1701.463 1701.627 1701.864 1701.583 1701.42 1701.542 1701.649 1700.943 1700.253 1699.419 1699.24 1698.853 1698.178 1697.615 1697.054 1696.326 1695.612 1694.901 1694.26 1693.631 1693.044 1692.421 1691.78 1690.859 1689.853 1689.137 1688.421 1687.86 1687.717 1687.469 1686.668 1684.329 1683.69 1682.984 1682.241 1681.498 1680.754 1680.032 1679.64 1678.414 1677.818 1677.193 1676.599 1675.406 1674.554 1673.862 1673.341 1672.754 1672.156 1671.468 1670.354 1669.443 1668.887 1668.237 1667.602 1666.943 1666.061 1665.041 1664.342 1663.708 1663.111 1661.985 1660.857 1660.291 1659.936 1659.102 1658.417 1657.752 1656.977 1656.131 1655.296 1654.46 1653.623 1652.842 1652.113 1651.268 1650.419 1649.576 1648.743 1647.913 1647.085 1646.454 1645.679 1645.314 1645.647 1646.17 1646.579 1647.003 1647.03 -9999 
-9999 1699.731 1700.031 1700.214 1700.387 1700.689 1700.762 1700.905 1700.879 1700.977 1701.066 1701.112 1701.129 1700.988 1701.054 1701.205 1700.59 1699.928 1699.312 1699.035 1698.683 1698.148 1697.594 1696.965 1696.187 1695.463 1694.752 1694.142 1693.509 1692.893 1692.32 1691.519 1690.578 1689.665 1689.094 1688.584 1688.096 1688.217 1688.103 1686.266 1684.243 1683.604 1682.918 1682.175 1681.432 1680.688 1679.945 1679.173 1678.393 1677.844 1677.138 1676.388 1675.625 1674.579 1674 1673.485 1672.877 1672.19 1671.153 1670.242 1669.667 1668.947 1668.384 1667.748 1667.073 1666.031 1665.021 1664.289 1663.738 1663.382 1662.166 1661.06 1660.261 1659.898 1659.354 1658.463 1657.732 1657.077 1656.336 1655.475 1654.606 1653.736 1652.847 1652.071 1651.253 1650.396 1649.594 1648.778 1647.902 1647.095 1646.374 1645.35 1644.896 1645.049 1645.459 1645.868 1646.426 1646.396 -9999 
-9999 1699.247 1699.68 1699.741 1699.815 1700.046 1700.226 1700.324 1700.43 1700.513 1700.662 1700.85 1700.771 1700.68 1700.604 1700.56 1700.357 1699.606 1698.97 1698.801 1698.415 1697.948 1697.535 1697.059 1696.108 1695.162 1694.527 1694.011 1693.368 1692.738 1692.079 1691.377 1690.436 1689.709 1689.309 1688.799 1688.502 1688.623 1688.484 1685.865 1684.156 1683.518 1682.852 1682.109 1681.366 1680.622 1679.876 1679.396 1679.117 1678.091 1676.849 1675.942 1675.164 1674.645 1674.151 1673.583 1672.775 1671.967 1671.514 1670.963 1669.948 1669.032 1668.588 1667.901 1667.054 1666.001 1665.002 1664.276 1663.693 1663.05 1662.056 1660.977 1660.327 1659.916 1659.108 1658.286 1657.743 1657.129 1656.489 1655.61 1654.701 1653.792 1652.902 1652.028 1651.215 1650.381 1649.507 1648.636 1647.852 1647.054 1646.187 1645.271 1644.646 1644.491 1644.747 1645.156 1645.75 1645.814 -9999 
-9999 1698.708 1698.926 1699.237 1699.359 1699.613 1699.744 1699.875 1700.01 1700.104 1700.486 1700.411 1700.282 1700.221 1700.198 1700.124 1699.808 1699.165 1698.732 1698.525 1698.193 1697.79 1697.41 1696.796 1696.022 1695.248 1694.423 1693.92 1693.246 1692.544 1691.837 1691.178 1690.303 1689.418 1689.102 1689.014 1688.908 1688.604 1688.108 1686.121 1684.07 1683.432 1682.787 1682.042 1681.296 1680.55 1679.768 1679.273 1678.58 1678.2 1677.523 1676.42 1675.321 1674.723 1674.073 1673.296 1672.248 1671.487 1671.151 1670.814 1670.133 1669.039 1668.057 1667.708 1667.317 1666.145 1665.106 1664.271 1663.732 1663.341 1661.945 1660.811 1660.389 1659.867 1659.105 1658.283 1657.714 1657.13 1656.412 1655.663 1654.754 1653.845 1652.96 1652.086 1651.212 1650.36 1649.509 1648.644 1647.935 1647.079 1646.269 1645.375 1644.671 1644.135 1644.245 1644.469 1645.071 1645.232 -9999 
-9999 1698.179 1698.345 1698.601 1698.883 1699.125 1699.25 1699.351 1699.51 1699.841 1699.977 1699.937 1699.797 1699.743 1699.775 1699.588 1699.244 1698.95 1698.767 1698.415 1697.974 1697.577 1697.157 1696.466 1695.692 1694.918 1694.301 1693.86 1693.291 1692.752 1691.908 1691.063 1690.209 1689.33 1688.717 1688.728 1688.211 1687.701 1687.205 1686.523 1684.379 1683.453 1682.774 1681.859 1681.224 1680.478 1679.638 1678.922 1678.506 1678.084 1676.872 1675.856 1675.523 1674.662 1673.876 1673.047 1672.241 1671.388 1670.792 1670.67 1670.63 1669.471 1668.393 1667.416 1666.598 1665.878 1665.184 1664.416 1663.876 1663.621 1661.852 1660.898 1660.313 1659.831 1659.127 1658.356 1657.765 1656.973 1656.206 1655.546 1654.806 1653.898 1653.019 1652.144 1651.27 1650.395 1649.533 1648.808 1647.999 1647.188 1646.377 1645.521 1644.732 1644.059 1644.179 1644.293 1644.633 1644.512 -9999 
-9999 1697.516 1697.757 1698.1 1698.385 1698.525 1698.65 1698.844 1699.055 1699.268 1699.303 1699.286 1699.291 1699.316 1699.352 1699.109 1698.791 1698.562 1698.483 1698.135 1697.716 1697.347 1696.887 1696.136 1695.362 1694.733 1694.172 1693.709 1693.193 1692.587 1692.027 1691.137 1690.177 1689.322 1688.535 1687.983 1687.542 1687.101 1686.689 1685.875 1685.185 1683.501 1682.788 1681.699 1680.941 1680.338 1679.58 1678.991 1678.663 1678.131 1676.933 1676.228 1675.74 1674.818 1673.793 1673.338 1672.649 1671.743 1670.617 1670.327 1670.377 1669.691 1668.51 1667.393 1666.68 1665.911 1665.415 1664.628 1664.117 1663.744 1661.972 1661.016 1660.381 1659.897 1659.23 1658.586 1657.897 1657.052 1656.179 1655.421 1654.681 1653.951 1653.068 1652.158 1651.248 1650.413 1649.631 1648.852 1648.442 1647.537 1646.602 1645.769 1645.354 1644.628 1643.926 1644.054 1643.923 1643.792 -9999 
-9999 1697.093 1697.168 1697.442 1697.704 1697.922 1698.122 1698.308 1698.494 1698.708 1698.833 1698.853 1698.877 1698.902 1698.934 1698.674 1698.425 1698.498 1698.2 1697.788 1697.459 1697.094 1696.58 1695.805 1695.165 1694.604 1694.043 1693.502 1692.911 1692.305 1691.889 1691.133 1690.201 1689.241 1688.42 1687.899 1687.458 1687.078 1686.673 1685.731 1684.789 1683.848 1682.802 1681.613 1681.014 1680.417 1679.828 1679.239 1678.753 1678.192 1677.27 1676.588 1675.484 1674.575 1673.597 1673.028 1672.554 1671.445 1670.589 1670.062 1669.701 1669.09 1668.311 1667.339 1666.683 1665.874 1665.3 1664.664 1663.91 1662.957 1661.707 1660.765 1660.517 1659.92 1659.293 1658.639 1658.16 1657.451 1656.53 1655.724 1654.804 1653.867 1652.998 1652.088 1651.288 1650.485 1649.681 1648.861 1648.528 1648.241 1647.538 1646.493 1645.805 1644.957 1643.837 1643.471 1643.246 1643.081 -9999 
-9999 1696.85 1697.097 1697.2 1697.252 1697.517 1697.629 1697.756 1697.941 1698.143 1698.272 1698.357 1698.412 1698.402 1698.407 1698.264 1698.412 1698.279 1697.925 1697.487 1697.21 1696.824 1696.249 1695.598 1695.037 1694.476 1693.918 1693.356 1692.619 1692.035 1691.39 1690.634 1689.877 1689.121 1688.305 1687.852 1687.473 1687.187 1686.529 1685.587 1684.644 1683.702 1682.952 1681.462 1681.112 1680.612 1679.986 1679.36 1678.632 1678.312 1677.287 1676.135 1675.325 1674.408 1673.372 1672.671 1672.18 1671.494 1670.606 1670.043 1669.232 1668.533 1667.835 1667.168 1666.509 1665.782 1665.015 1664.3 1663.464 1662.476 1661.571 1660.779 1660.396 1659.702 1658.979 1658.33 1657.483 1656.657 1655.994 1655.314 1654.567 1653.742 1652.915 1652.131 1651.338 1650.536 1649.726 1648.971 1648.476 1648.154 1647.642 1646.412 1645.392 1644.244 1643.697 1643.333 1643.111 1642.904 -9999 
-9999 1696.187 1696.443 1696.785 1696.905 1697.186 1697.333 1697.452 1697.533 1697.683 1697.837 1697.901 1697.932 1697.995 1698.14 1698.255 1698.042 1697.87 1697.621 1697.171 1696.832 1696.493 1696.039 1695.499 1694.958 1694.417 1693.845 1693.133 1692.482 1691.906 1691.327 1690.688 1689.915 1689.146 1688.379 1687.867 1687.57 1687.304 1686.385 1685.443 1684.541 1683.798 1683.055 1681.659 1681.229 1680.717 1680.084 1679.393 1678.646 1677.99 1677.042 1675.948 1675.287 1674.671 1673.345 1672.609 1671.917 1671.229 1670.585 1669.96 1669.156 1668.318 1667.674 1667.061 1666.405 1665.67 1664.859 1664.212 1663.216 1662.353 1661.571 1660.875 1660.36 1659.634 1658.83 1658.077 1657.36 1656.559 1655.799 1655.068 1654.352 1653.64 1652.921 1652.08 1651.318 1650.559 1649.832 1649.233 1648.624 1648.014 1647.314 1646.097 1645.066 1644.369 1643.819 1643.262 1643.059 1642.865 -9999 
-9999 1695.636 1695.9 1696.181 1696.353 1696.68 1696.936 1697.145 1697.284 1697.261 1697.489 1697.695 1697.785 1697.883 1697.752 1697.615 1697.526 1697.42 1697.259 1696.846 1696.511 1696.318 1695.867 1695.394 1694.911 1694.334 1693.673 1693.006 1692.362 1691.784 1691.205 1690.621 1690.022 1689.272 1688.498 1687.952 1687.686 1687.183 1686.241 1685.387 1684.644 1683.901 1683.158 1682.322 1681.273 1680.851 1680.162 1679.425 1678.728 1677.969 1676.97 1675.888 1674.931 1674.094 1673.32 1672.55 1671.948 1671.4 1670.602 1669.835 1669.017 1668.301 1667.653 1666.969 1666.305 1665.571 1664.681 1663.933 1663.2 1662.387 1661.424 1660.81 1660.462 1659.604 1658.846 1658.068 1657.258 1656.464 1655.719 1655.001 1654.281 1653.561 1652.841 1652.125 1651.361 1650.611 1649.822 1649.006 1648.432 1647.818 1646.805 1645.782 1645.116 1644.62 1644 1643.38 1643.045 1642.832 -9999 
-9999 1695.112 1695.409 1695.645 1695.808 1696.054 1696.338 1696.571 1696.746 1696.831 1697.007 1697.222 1697.258 1697.318 1697.277 1697.059 1696.941 1696.862 1696.706 1696.536 1696.355 1696.112 1695.655 1695.228 1694.613 1693.977 1693.333 1692.837 1692.242 1691.662 1691.083 1690.503 1689.913 1689.314 1688.628 1688.099 1687.802 1687.039 1686.233 1685.49 1684.714 1683.886 1683.058 1681.951 1681.232 1680.617 1679.932 1679.392 1678.703 1677.856 1676.985 1675.744 1674.841 1674.046 1673.25 1672.532 1671.883 1671.367 1670.563 1669.703 1668.99 1668.627 1667.77 1667.072 1666.263 1665.525 1664.663 1664.198 1663.322 1662.196 1661.295 1660.774 1660.421 1659.539 1658.987 1658.455 1657.341 1656.388 1655.673 1654.954 1654.234 1653.514 1652.776 1652.046 1651.404 1650.674 1649.884 1649.003 1648.149 1647.395 1646.52 1645.655 1645.208 1644.756 1644.182 1643.562 1643.051 1642.831 -9999 
-9999 1694.62 1694.928 1695.072 1695.294 1695.497 1695.742 1695.992 1696.176 1696.329 1696.491 1696.673 1696.712 1696.723 1696.691 1696.631 1696.493 1696.387 1696.309 1696.156 1696.278 1695.777 1695.305 1694.838 1694.317 1693.662 1693.268 1692.694 1692.144 1691.55 1690.961 1690.381 1689.802 1689.205 1688.58 1688.25 1687.837 1687.037 1686.209 1685.382 1684.554 1683.726 1682.898 1682.037 1681.055 1680.264 1679.471 1678.823 1678.194 1677.52 1676.673 1675.6 1674.747 1673.957 1673.232 1672.536 1671.848 1671.204 1670.363 1669.649 1669.23 1668.911 1667.947 1666.94 1666.081 1665.399 1664.704 1664.016 1662.831 1661.934 1661.251 1660.724 1660.309 1659.943 1658.518 1658.076 1657.239 1656.88 1655.627 1654.905 1654.163 1653.421 1652.678 1651.985 1651.342 1650.7 1649.946 1649.577 1649.214 1647.939 1646.471 1645.691 1645.145 1644.716 1644.252 1643.68 1643.109 1642.834 -9999 
-9999 1694.051 1694.346 1694.505 1694.708 1694.934 1695.159 1695.426 1695.619 1695.753 1695.89 1696.114 1696.225 1696.366 1696.274 1696.069 1696.009 1695.958 1695.882 1695.77 1695.598 1695.388 1694.942 1694.439 1693.948 1693.461 1693.073 1692.427 1691.894 1691.499 1690.943 1690.323 1689.702 1689.087 1688.384 1687.273 1686.991 1686.619 1685.783 1684.946 1684.11 1683.273 1682.444 1681.587 1680.77 1679.95 1679.147 1678.436 1677.691 1676.945 1676.198 1675.456 1674.668 1673.92 1673.388 1672.601 1671.934 1671.254 1670.278 1669.538 1669.481 1668.43 1667.379 1666.728 1665.947 1665.243 1664.554 1663.802 1662.793 1661.93 1661.213 1660.632 1660.099 1659.934 1658.539 1657.812 1657.284 1656.513 1655.613 1654.846 1654.065 1653.323 1652.58 1651.923 1651.281 1650.825 1650.551 1650.528 1649.166 1647.975 1646.711 1645.744 1645.064 1644.658 1644.239 1643.747 1643.326 1642.838 -9999 
-9999 1693.419 1693.682 1693.894 1694.122 1694.362 1694.645 1694.883 1695.059 1695.2 1695.304 1695.501 1695.677 1695.662 1695.656 1695.631 1695.62 1695.619 1695.58 1695.392 1695.177 1694.949 1694.562 1694.115 1693.63 1693.156 1692.71 1692.138 1691.645 1691.25 1690.854 1690.337 1689.716 1688.974 1688.112 1687.111 1686.277 1685.491 1685.124 1684.465 1683.629 1682.802 1681.995 1681.131 1680.505 1679.668 1678.917 1678.281 1677.536 1676.791 1676.046 1675.312 1674.676 1674.048 1673.41 1672.551 1672.175 1671.196 1670.215 1669.832 1669.215 1668.457 1667.496 1666.67 1665.862 1665.143 1664.391 1663.579 1662.612 1661.8 1660.969 1660.518 1660.058 1659.3 1658.527 1657.785 1657.057 1656.304 1655.619 1654.91 1654.097 1653.283 1652.549 1652.101 1651.654 1651.206 1651.031 1650.952 1648.331 1647.36 1646.531 1645.729 1644.976 1644.306 1643.828 1643.464 1643.165 1642.856 -9999 
-9999 1692.792 1693.069 1693.231 1693.523 1693.807 1694.064 1694.238 1694.398 1694.656 1694.827 1694.968 1695.071 1695.189 1695.205 1695.221 1695.209 1695.194 1695.146 1695.021 1694.788 1694.524 1694.233 1693.801 1693.37 1692.882 1692.397 1691.874 1691.368 1690.979 1690.59 1690.201 1689.543 1688.658 1687.697 1686.897 1686.287 1685.511 1684.745 1683.979 1683.174 1682.366 1681.562 1680.866 1680.239 1679.454 1678.777 1678.126 1677.381 1676.646 1675.994 1675.301 1674.628 1673.809 1673.141 1672.486 1671.727 1670.969 1670.232 1669.519 1668.89 1668.209 1667.404 1666.569 1665.776 1665.052 1664.22 1663.286 1662.45 1661.66 1660.873 1660.427 1660.064 1659.265 1658.467 1657.67 1656.933 1656.254 1655.597 1654.941 1654.049 1653.042 1652.676 1652.278 1651.88 1651.347 1651.15 1650.324 1648.473 1647.356 1646.511 1645.676 1645.003 1644.178 1643.259 1642.957 1642.736 1642.66 -9999 
-9999 1692.275 1692.532 1692.717 1692.946 1693.148 1693.478 1693.655 1693.827 1694.121 1694.343 1694.478 1694.53 1694.753 1694.875 1694.831 1694.763 1694.683 1694.64 1694.591 1694.399 1694.184 1693.87 1693.556 1693.151 1692.66 1692.164 1691.661 1691.169 1690.681 1690.178 1689.675 1689.172 1688.572 1687.591 1686.893 1686.221 1685.425 1684.643 1684.045 1683.028 1682.037 1681.478 1680.771 1680.046 1679.368 1678.687 1678.014 1677.362 1676.71 1675.934 1675.352 1674.609 1673.657 1672.902 1672.266 1671.532 1670.802 1670.052 1669.288 1668.651 1668.021 1667.276 1666.449 1665.675 1664.868 1664.016 1663.192 1662.383 1661.469 1660.736 1660.292 1659.948 1659.496 1658.639 1657.689 1656.747 1655.971 1655.242 1654.757 1654.299 1653.158 1652.762 1652.174 1651.586 1651.132 1650.799 1649.131 1648.28 1647.471 1646.654 1645.92 1645.115 1644.265 1643.285 1642.693 1642.406 1642.417 -9999 
-9999 1691.77 1692.043 1692.238 1692.371 1692.615 1692.889 1693.131 1693.301 1693.561 1693.786 1693.92 1693.958 1694.05 1694.318 1694.337 1694.178 1694.141 1694.177 1694.153 1694.089 1693.924 1693.63 1693.285 1692.931 1692.445 1691.976 1691.504 1691.016 1690.511 1690.033 1689.53 1689.027 1688.484 1687.764 1686.931 1686.173 1685.341 1684.766 1683.94 1682.916 1681.952 1681.542 1680.842 1680.073 1679.293 1678.572 1677.974 1677.425 1676.481 1676.084 1675.403 1674.531 1673.683 1672.862 1672.247 1671.519 1670.759 1669.981 1669.233 1668.445 1667.804 1667.121 1666.397 1665.631 1664.742 1663.978 1663.201 1662.358 1661.336 1660.543 1660.185 1659.772 1659.342 1658.956 1657.624 1656.581 1655.818 1655.008 1654.306 1653.827 1653.134 1652.457 1651.868 1651.316 1650.916 1650.402 1649.034 1648.181 1647.339 1646.638 1645.817 1644.963 1644.116 1643.269 1642.596 1642.034 1642.174 -9999 
-9999 1691.031 1691.314 1691.595 1691.826 1692.077 1692.303 1692.532 1692.76 1692.988 1693.189 1693.297 1693.393 1693.449 1693.569 1693.836 1693.732 1693.742 1693.741 1693.762 1693.813 1693.571 1693.164 1692.846 1692.67 1692.368 1691.923 1691.368 1690.83 1690.292 1689.888 1689.385 1688.891 1688.396 1687.676 1686.942 1686.041 1685.21 1684.528 1683.746 1682.796 1681.871 1681.316 1680.842 1680.202 1679.432 1678.571 1677.789 1677.128 1676.5 1676.235 1675.329 1674.398 1673.611 1672.821 1672.225 1671.594 1670.886 1669.979 1669.112 1668.244 1667.604 1666.921 1666.177 1665.359 1664.541 1663.815 1663.109 1662.173 1661.392 1660.737 1660.201 1659.451 1658.921 1658.301 1657.272 1656.451 1655.63 1654.9 1654.216 1653.499 1652.973 1652.247 1651.562 1651.105 1650.463 1649.635 1648.643 1647.873 1647.178 1646.445 1645.662 1644.831 1644.031 1643.206 1642.375 1641.766 1641.931 -9999 
-9999 1690.442 1690.727 1690.986 1691.28 1691.498 1691.642 1691.86 1692.081 1692.408 1692.557 1692.64 1692.769 1692.889 1693.065 1693.22 1693.319 1693.292 1693.281 1693.308 1693.325 1693.095 1692.704 1692.424 1692.171 1691.902 1691.55 1691.202 1690.645 1690.088 1689.733 1689.241 1688.756 1688.301 1687.588 1686.681 1685.764 1684.978 1684.204 1683.445 1682.673 1681.79 1681.123 1680.549 1680.052 1679.571 1678.504 1677.749 1676.995 1676.371 1675.901 1675.111 1674.234 1673.437 1672.773 1672.071 1671.327 1670.703 1669.92 1669.058 1668.362 1667.409 1666.722 1665.919 1665.183 1664.428 1663.678 1662.962 1662.236 1661.447 1660.309 1659.849 1659.477 1658.547 1657.793 1657.077 1656.256 1655.475 1654.792 1654.108 1653.424 1652.786 1652.059 1651.358 1650.612 1649.817 1649.105 1648.408 1647.713 1647.019 1646.299 1645.566 1644.793 1643.99 1643.124 1642.365 1641.656 1641.688 -9999 
-9999 1689.901 1690.195 1690.382 1690.679 1690.96 1691.163 1691.379 1691.68 1691.867 1692.004 1692.094 1692.253 1692.414 1692.568 1692.714 1692.818 1692.838 1692.801 1692.818 1692.837 1692.615 1692.334 1692.13 1691.829 1691.497 1691.168 1690.857 1690.457 1689.903 1689.514 1689.096 1688.621 1688.166 1687.445 1686.483 1685.532 1684.715 1683.991 1683.202 1682.414 1681.699 1681.027 1680.354 1679.68 1679.048 1678.423 1677.708 1676.96 1676.361 1675.902 1675.247 1674.052 1673.322 1672.615 1671.87 1671.126 1670.382 1669.636 1669.006 1668.61 1667.66 1666.571 1665.833 1665.077 1664.328 1663.562 1662.88 1662.225 1661.243 1660.257 1659.617 1659.285 1658.542 1657.759 1656.865 1656.06 1655.367 1654.683 1654.002 1653.342 1652.562 1651.856 1651.158 1650.428 1649.675 1648.984 1648.252 1647.554 1646.859 1646.154 1645.439 1644.689 1643.869 1643.178 1642.53 1641.847 1641.445 -9999 
-9999 1689.422 1689.609 1689.781 1690.09 1690.374 1690.579 1690.756 1691.051 1691.323 1691.483 1691.609 1691.789 1691.977 1692.11 1692.202 1692.306 1692.413 1692.465 1692.443 1692.407 1692.237 1692.043 1691.766 1691.44 1691.112 1690.801 1690.491 1690.18 1689.711 1689.295 1688.951 1688.487 1688.072 1687.179 1686.181 1685.273 1684.552 1683.811 1683.096 1682.431 1681.579 1680.909 1680.251 1679.577 1678.864 1678.21 1677.61 1676.819 1676.406 1676.274 1675.203 1673.87 1673.158 1672.414 1671.683 1670.962 1670.242 1669.479 1669.081 1668.357 1667.444 1666.481 1665.756 1665.011 1664.247 1663.457 1662.751 1661.768 1660.827 1660.119 1659.642 1659.178 1658.542 1657.9 1656.825 1655.958 1655.299 1654.639 1653.971 1653.16 1652.349 1651.639 1650.991 1650.259 1649.627 1648.975 1648.243 1647.512 1646.754 1645.995 1645.297 1644.526 1643.743 1643.344 1642.696 1642.038 1641.619 -9999 
-9999 1688.701 1688.993 1689.291 1689.557 1689.801 1690.009 1690.233 1690.479 1690.724 1690.939 1691.151 1691.365 1691.533 1691.723 1691.812 1691.891 1692.012 1692.143 1692.049 1691.937 1691.713 1691.491 1691.273 1691.054 1690.977 1690.769 1690.507 1690.002 1689.433 1689.104 1688.839 1688.507 1687.422 1686.504 1685.829 1685.146 1684.422 1683.796 1683.16 1682.376 1681.516 1680.758 1680.115 1679.475 1678.799 1678.22 1677.44 1676.674 1676.323 1675.855 1674.487 1673.756 1673.033 1672.312 1671.591 1670.871 1670.15 1669.361 1668.861 1668.388 1667.113 1666.422 1665.706 1664.924 1664.191 1663.459 1662.604 1661.455 1660.75 1659.966 1659.568 1658.99 1658.313 1657.63 1656.646 1655.936 1655.277 1654.594 1653.782 1652.988 1652.219 1651.638 1650.876 1650.276 1649.675 1648.793 1648.066 1647.315 1646.552 1645.803 1645.128 1644.315 1643.541 1642.848 1642.536 1642.213 1641.693 -9999 
-9999 1688.198 1688.445 1688.752 1689.009 1689.232 1689.476 1689.798 1690.02 1690.27 1690.449 1690.671 1690.916 1691.046 1691.3 1691.375 1691.533 1691.632 1691.772 1691.807 1691.535 1691.338 1691.245 1691.077 1690.852 1690.629 1690.696 1690.443 1689.73 1689.257 1688.946 1688.494 1688.041 1687.231 1686.517 1685.886 1685.235 1684.483 1683.86 1683.182 1682.322 1681.461 1680.659 1679.949 1679.32 1678.892 1678.194 1677.544 1676.99 1676.124 1675.108 1674.304 1673.675 1672.95 1672.226 1671.502 1670.779 1670.058 1669.242 1668.438 1667.889 1667.127 1666.759 1665.981 1664.616 1663.936 1663.173 1662.345 1661.571 1660.636 1659.939 1659.348 1658.705 1658.011 1657.329 1656.659 1655.912 1655.216 1654.435 1653.665 1652.896 1652.158 1651.775 1651.074 1650.424 1650.009 1648.607 1647.784 1647.059 1646.335 1645.625 1644.972 1644.104 1643.338 1642.576 1641.972 1641.66 1641.275 -9999 
-9999 1687.736 1687.945 1688.197 1688.42 1688.638 1689.019 1689.332 1689.765 1689.903 1690.038 1690.133 1690.345 1690.534 1690.784 1690.903 1691.009 1691.197 1691.248 1691.346 1691.118 1691.065 1691.024 1690.801 1690.583 1690.365 1690.134 1689.912 1689.252 1688.958 1688.487 1688.026 1687.574 1686.933 1686.193 1685.747 1685.382 1684.69 1683.924 1683.128 1682.267 1681.406 1680.56 1679.838 1679.197 1678.898 1678.246 1677.803 1677.352 1676.458 1674.925 1674.192 1673.605 1672.755 1672.009 1671.282 1670.555 1669.827 1669.031 1668.227 1667.575 1666.787 1666.599 1665.379 1664.541 1664.045 1663.112 1662.383 1661.632 1660.178 1659.81 1659.226 1658.555 1657.867 1657.195 1656.553 1655.892 1655.363 1654.565 1653.776 1652.988 1652.131 1651.832 1651.088 1650.246 1650.009 1648.551 1647.723 1646.957 1646.158 1645.473 1644.81 1643.896 1643.135 1642.373 1641.611 1641.103 1640.857 -9999 
-9999 1687.24 1687.297 1687.582 1687.811 1688.05 1688.486 1688.971 1688.995 1689.283 1689.532 1689.615 1689.777 1689.917 1690.118 1690.283 1690.418 1690.593 1690.602 1690.613 1690.626 1690.69 1690.595 1690.342 1690.124 1689.945 1689.63 1689.299 1688.96 1688.529 1688.058 1687.586 1687.115 1686.634 1685.953 1685.394 1685.106 1684.612 1683.783 1682.96 1682.145 1681.331 1680.491 1679.755 1679.236 1678.592 1677.87 1677.39 1676.903 1676.274 1675.27 1674.258 1673.568 1672.71 1671.858 1671.014 1670.173 1669.423 1668.764 1668.113 1667.463 1666.742 1665.823 1665.147 1664.464 1663.821 1663.023 1662.126 1661.255 1660.016 1659.67 1659.262 1658.668 1658.074 1657.196 1656.53 1655.88 1655.364 1654.963 1654.153 1653.289 1652.099 1651.522 1650.609 1649.685 1649.091 1648.525 1647.491 1646.712 1645.956 1645.226 1644.573 1643.693 1642.932 1642.17 1641.409 1640.698 1640.399 -9999 
-9999 1686.514 1686.655 1686.953 1687.217 1687.464 1687.838 1688.524 1688.489 1688.66 1688.941 1689.088 1689.213 1689.393 1689.58 1689.855 1690.003 1689.989 1690.002 1690.053 1690.08 1690.272 1690.166 1689.884 1689.756 1689.494 1689.224 1689.081 1688.699 1688.248 1687.797 1687.346 1686.887 1686.422 1685.799 1685.331 1684.931 1684.461 1683.519 1682.686 1681.867 1681.059 1680.391 1679.71 1678.995 1678.225 1677.544 1676.941 1676.454 1675.967 1674.984 1674.303 1673.531 1672.673 1671.816 1670.961 1670.251 1669.584 1668.892 1668.179 1667.465 1666.752 1666.059 1665.424 1664.511 1663.675 1662.95 1661.875 1660.729 1660.113 1659.66 1658.973 1658.901 1658.554 1656.948 1656.278 1655.85 1655.322 1654.801 1653.942 1653.07 1651.97 1650.982 1650.085 1649.355 1648.981 1648.116 1647.173 1646.765 1646.109 1645.014 1644.284 1643.328 1642.73 1641.969 1641.216 1640.574 1640.077 -9999 
-9999 1685.874 1686.16 1686.442 1686.697 1686.938 1687.327 1687.758 1687.786 1687.997 1688.278 1688.544 1688.68 1688.863 1689.015 1689.394 1689.61 1689.419 1689.556 1689.514 1689.48 1689.534 1689.555 1689.393 1689.302 1689.077 1688.921 1688.795 1688.481 1688.03 1687.579 1687.131 1686.687 1686.244 1685.775 1685.457 1684.94 1683.745 1683.094 1682.319 1681.605 1680.958 1680.337 1679.639 1678.813 1678.16 1677.458 1676.725 1676.005 1675.518 1674.699 1674.177 1673.482 1672.623 1671.764 1670.959 1670.546 1669.855 1669.166 1668.478 1667.776 1666.779 1665.822 1665.362 1664.199 1663.575 1663.199 1661.678 1660.687 1660.048 1659.628 1658.958 1659.372 1658.301 1656.56 1655.873 1655.415 1654.364 1653.63 1653.073 1652.566 1651.577 1650.814 1649.95 1649.227 1648.866 1648.27 1647.174 1646.64 1646.146 1645.189 1644.168 1643.391 1642.49 1641.767 1641.107 1640.419 1639.763 -9999 
-9999 1685.324 1685.615 1685.906 1686.21 1686.45 1686.735 1687.006 1687.174 1687.413 1687.712 1688.001 1688.147 1688.309 1688.416 1688.712 1688.918 1688.856 1688.998 1689.014 1689.015 1689.036 1689.049 1688.894 1688.732 1688.612 1688.402 1688.366 1688.282 1687.829 1687.385 1686.942 1686.498 1686.042 1685.736 1685.344 1684.649 1683.73 1682.844 1682.22 1681.517 1680.846 1680.219 1679.631 1678.829 1678.129 1677.377 1676.639 1675.907 1675.174 1674.513 1673.9 1673.324 1672.566 1671.707 1670.979 1670.512 1670.137 1669.437 1668.599 1667.751 1666.638 1665.654 1665.21 1664.319 1663.359 1662.589 1661.828 1660.532 1659.975 1659.53 1658.902 1659.153 1658.005 1656.265 1655.669 1654.934 1653.872 1653.23 1652.508 1651.966 1651.573 1651.074 1650.099 1649.291 1648.51 1647.743 1646.968 1646.016 1645.535 1644.894 1644.322 1643.48 1642.323 1641.63 1640.89 1640.15 1639.501 -9999 
-9999 1684.779 1685.071 1685.557 1685.811 1686.005 1686.222 1686.419 1686.622 1686.861 1687.189 1687.417 1687.595 1687.675 1687.77 1687.989 1688.212 1688.313 1688.312 1688.413 1688.52 1688.554 1688.526 1688.427 1688.269 1688.177 1688.041 1688.222 1688.083 1687.688 1687.244 1686.782 1686.32 1685.926 1685.622 1684.833 1684.158 1683.226 1682.611 1682.116 1681.576 1680.797 1680.33 1679.926 1678.989 1678.061 1677.298 1676.552 1675.82 1675.067 1674.294 1673.623 1673.047 1672.471 1671.699 1671 1670.377 1669.594 1668.811 1667.926 1667.543 1667.152 1665.815 1665.325 1664.438 1663.228 1663.509 1661.761 1660.399 1660.044 1659.492 1658.9 1658.098 1657.335 1655.969 1655.359 1654.453 1653.73 1653.007 1652.254 1651.795 1651.261 1650.464 1649.675 1649.109 1648.296 1647.507 1646.721 1645.722 1645.057 1644.461 1644.06 1643.465 1642.455 1641.444 1640.652 1639.861 1639.227 -9999 
-9999 1684.234 1684.739 1685.284 1685.54 1685.633 1685.677 1685.883 1686.066 1686.319 1686.567 1686.769 1686.984 1686.994 1687.183 1687.395 1687.56 1687.716 1687.852 1687.846 1687.951 1688.005 1688.032 1687.936 1687.813 1687.795 1687.765 1687.653 1687.555 1687.267 1686.932 1686.602 1686.175 1685.63 1685.058 1684.228 1683.616 1683.007 1682.387 1681.918 1681.503 1680.769 1680.51 1679.75 1678.713 1677.932 1677.201 1676.46 1675.689 1674.92 1674.313 1673.577 1672.853 1672.262 1671.259 1670.723 1670.316 1669.456 1668.582 1667.733 1667.379 1667 1666.065 1664.994 1663.965 1663.151 1662.812 1661.309 1660.565 1660.157 1659.387 1658.485 1657.499 1656.541 1655.605 1654.99 1654.289 1653.558 1652.82 1652.113 1652.002 1651.593 1650.862 1649.502 1648.703 1647.974 1647.109 1646.244 1645.42 1644.665 1643.927 1643.392 1642.964 1642.002 1641.174 1640.431 1639.619 1638.952 -9999 
-9999 1683.694 1683.992 1684.472 1684.734 1684.829 1685.022 1685.311 1685.539 1685.775 1685.993 1686.198 1686.444 1686.723 1686.597 1686.754 1686.918 1687.069 1687.22 1687.371 1687.419 1687.455 1687.478 1687.495 1687.468 1687.419 1687.356 1687.279 1687.1 1686.827 1686.49 1686.341 1686.128 1685.541 1684.782 1684.08 1683.502 1682.897 1682.29 1681.807 1681.557 1680.924 1680.272 1679.413 1678.53 1677.799 1677.077 1676.369 1675.63 1674.832 1674.152 1673.463 1672.768 1672.046 1671.18 1670.85 1670.366 1669.51 1668.653 1667.774 1667.191 1666.596 1665.502 1664.781 1663.852 1663.041 1662.113 1661.081 1660.77 1660.028 1659.132 1658.201 1657.303 1656.419 1655.421 1654.717 1654.02 1653.327 1652.639 1651.951 1651.765 1651.473 1650.879 1649.654 1648.297 1647.652 1646.787 1645.922 1645.202 1644.479 1643.827 1643.167 1642.492 1641.708 1640.876 1640.164 1639.398 1638.683 -9999 
-9999 1683.178 1683.477 1683.862 1684.051 1684.235 1684.466 1684.77 1685.02 1685.256 1685.518 1685.632 1685.809 1686.282 1686.382 1686.305 1686.34 1686.496 1686.649 1686.802 1686.888 1686.912 1686.983 1687.081 1687.183 1687.032 1686.972 1686.981 1686.708 1686.424 1686.117 1686.145 1685.759 1685.287 1684.75 1684.083 1683.47 1682.734 1682.123 1681.715 1681.326 1680.693 1679.988 1679.129 1678.402 1677.683 1676.964 1676.26 1675.566 1674.841 1674.257 1673.584 1672.679 1671.768 1671.582 1671.074 1670.421 1669.784 1668.469 1667.542 1666.743 1666.147 1665.386 1664.876 1664.034 1662.992 1661.991 1660.974 1660.754 1659.821 1658.894 1657.992 1657.107 1656.223 1655.367 1654.558 1653.853 1653.164 1652.476 1651.801 1651.507 1651.12 1650.257 1649.409 1648.367 1647.325 1646.465 1645.78 1645.053 1644.235 1643.483 1642.768 1642.046 1641.312 1640.6 1639.888 1639.175 1638.443 -9999 
-9999 1682.661 1683.09 1683.63 1683.721 1683.793 1683.96 1684.286 1684.509 1684.703 1684.991 1685.218 1685.242 1685.697 1685.994 1685.831 1685.88 1685.994 1686.107 1686.232 1686.382 1686.396 1686.45 1686.55 1686.639 1686.579 1686.471 1686.529 1686.341 1685.982 1685.819 1685.629 1685.158 1684.896 1684.628 1683.928 1683.233 1682.554 1682.012 1681.581 1681.127 1680.575 1679.759 1679.007 1678.288 1677.569 1676.85 1676.152 1675.5 1675.023 1674.448 1673.594 1672.822 1672.235 1671.636 1670.811 1669.9 1669.014 1668.216 1667.359 1666.612 1665.98 1665.275 1664.869 1664.33 1663.287 1661.653 1660.974 1660.616 1659.671 1658.72 1658.001 1657.286 1656.452 1655.098 1654.398 1653.7 1653.004 1652.313 1651.658 1651.222 1650.499 1649.637 1648.783 1647.938 1647.081 1646.254 1645.631 1644.904 1644.086 1643.228 1642.511 1641.844 1641.108 1640.366 1639.646 1638.92 1638.274 -9999 
-9999 1682.146 1682.516 1682.838 1683.066 1683.286 1683.539 1683.813 1684.213 1684.439 1684.705 1684.636 1684.85 1685.183 1685.398 1685.358 1685.423 1685.536 1685.641 1685.732 1685.871 1685.938 1686.028 1686.137 1686.165 1686.122 1686.039 1686.024 1685.983 1685.64 1685.49 1685.105 1684.69 1684.346 1684.13 1683.565 1682.921 1682.441 1682.193 1681.822 1681.016 1680.381 1679.727 1678.924 1678.176 1677.456 1676.737 1676.176 1675.62 1675.16 1674.356 1673.21 1672.572 1671.927 1671.303 1670.649 1669.748 1668.916 1668.114 1667.325 1667.101 1666.369 1665.249 1664.849 1664.497 1662.636 1661.488 1661.033 1660.712 1659.737 1658.816 1657.902 1657.322 1656.382 1655.029 1654.259 1653.49 1652.812 1652.149 1651.515 1650.988 1650.097 1649.288 1648.452 1647.603 1646.751 1646.133 1645.481 1644.755 1643.865 1643.087 1642.386 1641.699 1640.932 1640.165 1639.43 1638.71 1638.082 -9999 
-9999 1681.637 1681.942 1682.223 1682.452 1682.678 1682.929 1683.225 1683.639 1683.886 1683.846 1684.063 1684.336 1684.521 1684.803 1684.884 1684.965 1685.065 1685.156 1685.246 1685.373 1685.447 1685.508 1685.69 1685.674 1685.652 1685.666 1685.604 1685.584 1685.135 1685.057 1684.629 1684.272 1683.997 1683.644 1683.225 1682.849 1682.667 1682.294 1681.48 1680.675 1680.104 1679.618 1678.887 1678.096 1677.304 1676.607 1676.057 1675.677 1675.25 1674.305 1673.068 1672.359 1671.674 1671.015 1670.357 1669.546 1668.805 1668.337 1668.021 1667.705 1666.607 1665.341 1664.637 1664.273 1662.351 1661.616 1661.1 1660.2 1659.257 1658.548 1657.776 1657.417 1656.68 1655.424 1654.495 1653.381 1652.585 1651.944 1651.44 1650.932 1650.022 1649.061 1648.22 1647.38 1646.532 1645.874 1645.183 1644.457 1643.723 1642.999 1642.274 1641.523 1640.756 1639.989 1639.222 1638.494 1637.819 -9999 
-9999 1681.03 1681.324 1681.619 1681.792 1682.025 1682.483 1682.878 1682.777 1683.143 1683.26 1683.565 1683.772 1684.073 1684.231 1684.407 1684.489 1684.579 1684.67 1684.761 1684.868 1684.945 1685.044 1685.104 1685.06 1685.075 1685.153 1685.135 1684.856 1684.74 1684.63 1684.364 1684.055 1683.718 1683.337 1682.92 1682.613 1682.164 1681.857 1681.173 1680.333 1679.828 1679.342 1678.83 1677.803 1677.095 1676.611 1675.962 1675.41 1675.03 1674.167 1673.003 1672.354 1671.602 1670.89 1670.167 1669.467 1668.896 1668.423 1668.106 1667.502 1666.558 1665.471 1664.633 1664.281 1662.566 1661.532 1660.828 1659.882 1659.003 1658.265 1657.723 1657.265 1656.713 1655.859 1655.214 1654.099 1652.789 1651.845 1651.354 1650.758 1649.725 1648.846 1648.002 1647.158 1646.335 1645.598 1644.905 1644.201 1643.474 1642.741 1642.017 1641.264 1640.507 1639.762 1639.018 1638.273 1637.657 -9999 
-9999 1680.416 1680.69 1680.964 1681.275 1681.619 1682.005 1682.327 1682.272 1682.479 1682.766 1683.085 1683.461 1683.729 1683.888 1684.047 1684.135 1684.203 1684.249 1684.295 1684.34 1684.422 1684.522 1684.514 1684.566 1684.555 1684.515 1684.49 1684.427 1684.501 1684.345 1683.964 1684.053 1683.648 1683.182 1682.665 1682.266 1681.94 1681.529 1681.025 1680.202 1679.665 1679.208 1678.434 1677.553 1677.095 1676.524 1675.875 1675.226 1674.764 1673.893 1673.067 1672.36 1671.542 1670.791 1670.194 1669.622 1669.051 1668.508 1668.119 1667.284 1666.389 1665.411 1664.864 1664.721 1662.569 1661.467 1660.731 1659.812 1658.953 1658.098 1657.378 1656.857 1656.288 1655.564 1655.106 1653.817 1652.528 1651.642 1651.066 1650.428 1649.459 1648.63 1647.787 1646.963 1646.161 1645.371 1644.623 1643.913 1643.189 1642.462 1641.762 1641.026 1640.225 1639.464 1638.715 1637.969 1637.486 -9999 
-9999 1679.962 1680.236 1680.512 1680.766 1681.042 1681.334 1681.616 1681.729 1681.953 1682.332 1682.757 1683.218 1683.385 1683.526 1683.514 1683.597 1683.67 1683.715 1683.716 1683.744 1683.845 1684.035 1684.289 1684.11 1684.003 1683.966 1683.977 1683.994 1683.865 1683.711 1683.51 1683.215 1682.914 1682.592 1682.325 1681.974 1681.592 1681.104 1680.628 1680.161 1679.555 1678.827 1678.048 1677.341 1676.854 1676.3 1675.699 1675.099 1674.507 1674.02 1673.199 1672.067 1671.511 1670.946 1670.374 1669.794 1669.213 1668.635 1667.873 1666.917 1666.264 1665.475 1664.701 1663.896 1662.366 1661.604 1660.882 1659.829 1658.948 1658.107 1657.28 1656.592 1655.713 1654.906 1654.316 1653.084 1652.272 1651.461 1650.762 1650.097 1649.251 1648.415 1647.592 1646.79 1645.987 1645.188 1644.411 1643.758 1643.052 1642.313 1641.476 1640.758 1639.977 1639.193 1638.478 1637.832 1637.316 -9999 
-9999 1679.508 1679.782 1680.061 1680.341 1680.55 1680.74 1681.039 1681.173 1681.506 1681.853 1682.478 1682.881 1682.906 1682.894 1682.883 1682.95 1683.09 1683.136 1683.102 1683.149 1683.257 1683.385 1683.575 1683.66 1683.509 1683.538 1683.608 1683.677 1683.506 1683.272 1683.106 1682.836 1682.622 1682.317 1681.994 1681.705 1681.275 1680.821 1680.345 1679.913 1679.483 1678.686 1677.901 1677.161 1676.683 1676.344 1675.744 1675.28 1674.572 1673.742 1672.518 1672.024 1671.633 1671.124 1670.558 1669.977 1669.268 1668.074 1667.301 1666.673 1666.045 1665.386 1664.776 1663.688 1662.196 1661.542 1660.929 1659.902 1658.948 1658.067 1657.17 1656.362 1655.486 1654.571 1653.749 1652.939 1652.13 1651.321 1651.574 1650.126 1649.043 1648.22 1647.418 1646.616 1645.814 1645.011 1644.274 1643.577 1642.966 1642.168 1641.216 1640.456 1639.691 1638.973 1638.338 1637.706 1637.146 -9999 
-9999 1679.054 1679.33 1679.61 1679.896 1680.046 1680.187 1680.475 1680.767 1681.219 1681.303 1681.854 1682.295 1682.274 1682.263 1682.251 1682.303 1682.453 1682.632 1682.835 1682.588 1682.705 1682.836 1683.07 1683.284 1683.105 1683.143 1683.229 1683.308 1683.184 1682.943 1682.701 1682.47 1682.415 1682.097 1681.874 1681.638 1681.185 1680.566 1680.053 1679.674 1679.245 1678.583 1677.956 1677.227 1676.544 1676.399 1676.04 1675.274 1674.233 1673.345 1672.951 1672.487 1671.948 1671.343 1670.738 1669.842 1668.893 1667.962 1667.187 1666.485 1665.85 1665.24 1664.721 1663.525 1661.997 1661.443 1660.852 1660.004 1659.335 1657.955 1657.033 1656.134 1655.458 1654.802 1653.844 1652.805 1651.996 1651.187 1650.706 1649.635 1648.845 1648.042 1647.24 1646.437 1645.635 1644.834 1644.063 1643.327 1642.703 1641.85 1640.976 1640.233 1639.517 1638.858 1638.215 1637.58 1636.976 -9999 
-9999 1678.6 1678.882 1679.155 1679.421 1679.506 1679.623 1679.912 1680.156 1680.371 1680.719 1681.125 1681.579 1681.664 1681.643 1681.621 1681.66 1681.831 1682.055 1682.327 1682.031 1682.171 1682.373 1682.427 1682.495 1682.533 1682.606 1682.709 1682.812 1682.727 1682.483 1682.252 1682.073 1682.061 1681.879 1681.682 1681.484 1681.123 1680.414 1679.85 1679.371 1678.953 1678.409 1677.89 1677.049 1676.463 1676.456 1676.104 1675.113 1674.073 1673.338 1672.801 1672.385 1671.798 1671.116 1670.525 1669.973 1669.084 1668.169 1667.293 1666.552 1665.85 1664.737 1663.828 1662.847 1661.823 1661.502 1660.821 1660.727 1658.536 1657.732 1657.125 1656.33 1655.534 1654.773 1654 1652.96 1651.861 1651.067 1650.264 1649.451 1648.661 1647.86 1647.059 1646.258 1645.458 1644.657 1643.856 1643.11 1642.352 1641.705 1640.842 1640.188 1639.391 1638.745 1638.099 1637.456 1636.824 -9999 
-9999 1678.171 1678.395 1678.654 1678.919 1678.986 1679.13 1679.344 1679.552 1679.805 1680.103 1680.408 1680.666 1680.861 1680.916 1681.038 1681.188 1681.349 1681.629 1681.717 1681.543 1681.809 1682.071 1681.941 1681.984 1682.004 1682.059 1682.159 1682.268 1682.298 1681.941 1681.716 1681.578 1681.491 1681.53 1681.484 1681.008 1680.889 1680.256 1679.65 1679.326 1678.848 1678.206 1677.724 1677.11 1676.36 1676.247 1675.907 1674.953 1673.988 1673.331 1672.794 1672.232 1671.484 1670.854 1670.302 1669.75 1669.198 1668.375 1667.499 1666.624 1665.708 1664.562 1663.542 1662.468 1661.908 1661.435 1660.69 1659.642 1658.385 1657.589 1657.156 1656.159 1655.115 1654.368 1653.696 1652.889 1651.817 1651.021 1650.226 1649.41 1648.595 1647.713 1646.916 1646.118 1645.321 1644.516 1643.719 1643.028 1642.555 1641.575 1640.726 1639.924 1639.279 1638.633 1637.987 1637.341 1636.698 -9999 
-9999 1677.442 1678.031 1678.027 1678.241 1678.401 1678.509 1678.711 1678.99 1679.253 1679.582 1679.781 1680.066 1680.511 1680.437 1680.542 1680.723 1680.898 1681.022 1681.004 1681.157 1681.466 1681.658 1681.446 1681.535 1681.551 1681.538 1681.608 1681.725 1681.843 1681.512 1681.244 1681.134 1681.134 1681.419 1680.867 1680.783 1680.546 1679.938 1679.48 1679.052 1678.516 1677.975 1677.437 1676.897 1676.284 1676.048 1675.368 1674.689 1673.947 1673.324 1672.552 1671.71 1671.154 1670.601 1670.048 1669.498 1668.965 1668.267 1667.468 1666.421 1665.587 1664.839 1663.992 1662.304 1661.824 1661.16 1660.224 1659.305 1658.414 1657.499 1656.943 1656.101 1654.998 1654.042 1653.228 1652.544 1651.752 1650.96 1650.164 1649.427 1648.405 1647.584 1646.787 1645.985 1645.176 1644.366 1643.588 1642.86 1642.213 1641.283 1640.496 1639.771 1639.306 1638.841 1638.169 1637.458 1636.746 -9999 
-9999 1676.341 1676.574 1677.003 1677.432 1677.632 1677.942 1678.322 1678.559 1678.704 1678.992 1679.233 1679.481 1680.076 1680.17 1680.192 1680.304 1680.39 1680.479 1680.607 1680.788 1680.857 1680.91 1680.985 1681.086 1681.098 1681.085 1681.032 1681.157 1681.3 1681.076 1680.852 1680.786 1680.778 1680.982 1680.433 1680.256 1679.96 1679.586 1679.259 1678.749 1678.425 1677.945 1677.256 1676.705 1676.172 1675.687 1675.194 1674.676 1673.79 1673.204 1672.558 1671.88 1670.893 1670.341 1669.803 1669.27 1668.736 1668.01 1667.103 1665.579 1665.244 1664.892 1663.552 1662.145 1661.717 1660.954 1660.122 1659.249 1658.383 1657.433 1656.474 1655.947 1655.404 1653.941 1653.103 1652.418 1651.625 1650.833 1649.998 1649.151 1648.253 1647.455 1646.645 1645.835 1645.026 1644.216 1643.456 1642.729 1642.176 1641.467 1640.406 1639.574 1639.057 1638.592 1638.126 1637.661 1637.135 -9999 
-9999 1675.882 1676.021 1676.384 1676.728 1677.013 1677.367 1677.712 1677.911 1678.077 1678.328 1678.586 1678.783 1679.273 1679.741 1679.659 1679.734 1679.854 1679.975 1680.088 1680.175 1680.259 1680.342 1680.515 1680.629 1680.616 1680.561 1680.506 1680.456 1680.785 1680.534 1680.481 1680.429 1680.385 1680.399 1679.89 1679.645 1679.423 1679.203 1678.951 1678.544 1678.19 1677.692 1677.049 1676.53 1676.006 1675.555 1675.114 1674.522 1673.33 1672.829 1672.315 1671.653 1670.655 1670.108 1669.575 1669.041 1668.485 1667.846 1666.745 1665.503 1664.755 1663.874 1662.993 1662.083 1661.62 1660.886 1660.003 1659.117 1658.362 1657.523 1656.195 1655.695 1654.99 1653.82 1653.009 1652.291 1651.499 1650.666 1649.79 1649.003 1648.132 1647.305 1646.495 1645.686 1644.876 1644.066 1643.325 1642.651 1642.237 1641.865 1640.613 1639.429 1638.808 1638.343 1637.877 1637.394 1636.909 -9999 
-9999 1675.327 1675.468 1675.692 1676.08 1676.402 1676.764 1677.042 1677.258 1677.453 1677.706 1678.031 1678.259 1678.635 1678.955 1679.162 1679.169 1679.316 1679.406 1679.536 1679.622 1679.71 1679.812 1680.027 1680.03 1680.045 1680.071 1680.038 1680.1 1680.213 1680.001 1680.126 1680.027 1679.987 1679.818 1679.439 1679.272 1679.177 1679.012 1678.698 1678.335 1677.954 1677.386 1676.925 1676.489 1675.848 1675.389 1674.919 1674.318 1673.406 1672.705 1671.931 1671.14 1670.491 1669.921 1669.369 1668.816 1668.262 1667.787 1666.525 1665.402 1664.555 1663.708 1662.864 1662.142 1661.589 1660.754 1659.871 1658.985 1658.124 1657.316 1656.004 1655.378 1654.552 1653.743 1652.933 1652.165 1651.335 1650.459 1649.599 1648.853 1648.022 1647.241 1646.45 1645.551 1644.726 1643.921 1643.24 1642.593 1642.298 1642.208 1640.82 1639.531 1638.559 1638.093 1637.597 1637.087 1636.607 -9999 
-9999 1674.776 1674.932 1675.146 1675.432 1675.823 1676.152 1676.31 1676.606 1676.908 1677.092 1677.387 1677.691 1677.921 1678.149 1678.374 1678.596 1678.691 1678.822 1678.987 1679.071 1679.158 1679.263 1679.494 1679.601 1679.72 1679.866 1679.751 1679.642 1679.682 1679.691 1679.608 1679.536 1679.466 1679.287 1679.119 1679.025 1678.969 1678.73 1678.434 1678.078 1677.667 1677.209 1676.753 1676.273 1675.789 1675.205 1674.727 1674.099 1673.196 1672.458 1671.627 1670.935 1670.326 1669.742 1669.189 1668.641 1667.893 1667.354 1666.513 1665.599 1664.666 1663.767 1662.821 1662.077 1661.37 1660.597 1659.716 1658.88 1658.081 1657.336 1656.904 1655.149 1654.386 1653.601 1652.853 1652.046 1651.065 1650.183 1649.478 1648.665 1647.863 1647.072 1646.334 1645.58 1644.713 1643.827 1643.18 1642.591 1642.289 1641.826 1641.078 1639.899 1638.554 1637.764 1637.227 1636.689 1636.278 -9999 
-9999 1674.148 1674.405 1674.569 1674.9 1675.32 1675.576 1675.853 1676.173 1676.356 1676.48 1676.764 1677.078 1677.298 1677.518 1677.738 1677.959 1678.179 1678.335 1678.432 1678.532 1678.634 1678.736 1678.837 1678.97 1679.078 1679.06 1679.149 1679.239 1679.398 1679.312 1679.225 1679.142 1679.059 1678.94 1678.859 1678.672 1678.424 1678.176 1677.858 1677.523 1677.305 1677.082 1676.642 1676.258 1675.724 1675.14 1674.56 1673.77 1672.981 1672.27 1671.591 1670.912 1670.234 1669.564 1669.018 1668.273 1667.471 1666.721 1666.003 1665.284 1664.408 1663.381 1662.449 1661.718 1660.984 1660.25 1659.516 1658.783 1658.033 1657.242 1656.738 1655.279 1654.626 1653.767 1652.892 1652.018 1651.143 1650.264 1649.328 1648.473 1647.646 1646.831 1646.016 1645.252 1644.412 1643.92 1643.224 1642.476 1641.728 1640.981 1640.233 1639.485 1638.738 1637.99 1637.135 1636.26 -9999 -9999 
-9999 -9999 -9999 -9999 -9999 -9999 -9999 -9999 -9999 -9999 -9999 -9999 -9999 -9999 -9999 -9999 -9999 -9999 -9999 -9999 -9999 -9999 -9999 -9999 -9999 -9999 -9999 -9999 -9999 -9999 -9999 -9999 -9999 -9999 -9999 -9999 -9999 -9999 -9999 -9999 -9999 -9999 -9999 -9999 -9999 -9999 -9999 -9999 -9999 -9999 -9999 -9999 -9999 -9999 -9999 -9999 -9999 -9999 -9999 -9999 -9999 -9999 -9999 -9999 -9999 -9999 -9999 -9999 -9999 -9999 -9999 -9999 -9999 -9999 -9999 -9999 -9999 -9999 -9999 -9999 -9999 -9999 -9999 -9999 -9999 -9999 -9999 -9999 -9999 -9999 -9999 -9999 -9999 -9999 -9999 -9999 -9999 -9999 -9999 
